ply
format ascii 1.0
element face 0
property list uchar int vertex_indices
element vertex 647
property float x
property float y
property float z
property uchar diffuse_red
property uchar diffuse_green
property uchar diffuse_blue
end_header
1.886082e+000 -1.117812e+000 -6.759720e+000 203 182 70
2.163693e+000 -8.520974e-001 -6.195516e+000 221 195 83
2.163693e+000 -8.520974e-001 -6.195516e+000 221 195 83
2.186670e+000 -8.437330e-001 -6.162036e+000 177 153 51
2.183258e+000 -7.382899e-001 -6.163358e+000 214 189 76
2.174031e+000 -7.793764e-001 -6.178704e+000 215 192 85
2.506772e+000 -4.554319e-001 -5.341735e+000 226 181 185
2.142056e+000 -9.473021e-001 -6.234068e+000 212 189 70
2.199935e+000 -6.649974e-001 -6.149481e+000 215 190 73
1.884259e+000 -1.074493e+000 -6.753813e+000 41 28 0
1.884259e+000 -1.074493e+000 -6.753813e+000 41 28 0
2.515014e+000 -3.404955e-001 -5.329298e+000 234 192 195
2.505844e+000 -3.903342e-001 -5.345552e+000 240 179 181
-8.913507e-001 5.950965e-001 -4.535622e+000 22 27 46
-8.898447e-001 5.955072e-001 -4.535478e+000 22 27 46
-8.898447e-001 5.955072e-001 -4.535478e+000 22 27 46
-8.693677e-001 -1.540079e-001 -5.020144e+000 23 24 28
8.651021e-001 1.042973e-001 -5.628220e+000 210 177 196
6.144287e-002 4.106702e-001 -5.501826e+000 144 19 27
-9.341651e-001 7.104010e-001 -4.558875e+000 201 211 244
1.027936e+000 3.902539e-002 -5.449430e+000 173 109 126
1.007126e+000 6.132541e-001 -5.482089e+000 213 194 208
1.007126e+000 6.132541e-001 -5.482089e+000 213 194 208
3.697267e-001 5.473732e-001 -5.367403e+000 73 2 3
-8.769515e-001 4.681553e-001 -4.590993e+000 190 201 238
4.725609e-001 1.047635e+000 -5.532349e+000 163 18 29
2.311697e+000 -1.111215e+000 -5.838004e+000 202 197 105
6.686127e-003 5.112491e-001 -5.468882e+000 224 55 95
6.686127e-003 5.112491e-001 -5.468882e+000 224 55 95
8.331410e-001 6.095087e-001 -5.484580e+000 95 0 2
-5.808444e-001 5.159862e-001 -4.610064e+000 108 54 70
1.673309e-001 7.085957e-001 -5.385099e+000 218 203 221
-9.393593e-001 5.958686e-001 -4.515955e+000 17 20 27
4.178942e-001 1.140157e+000 -5.539518e+000 171 150 172
2.502288e+000 -4.544874e-001 -5.332557e+000 226 181 185
9.586895e-001 2.057130e-001 -5.685669e+000 99 3 5
-4.981090e-001 3.834191e-001 -4.557065e+000 156 98 112
1.048139e+000 7.011459e-001 -5.480924e+000 45 10 7
1.258705e-001 6.368745e-001 -5.368185e+000 82 11 26
-5.956063e-001 5.592211e-001 -4.599403e+000 235 181 194
-9.805043e-001 5.466876e-001 -4.562641e+000 183 230 255
9.507323e-001 2.561867e-002 -5.582005e+000 66 13 22
1.235183e+000 1.352731e-001 -5.478940e+000 95 35 39
1.112303e+000 1.441840e-001 -5.535244e+000 172 101 113
7.169451e-001 2.185148e-001 -5.649407e+000 111 13 20
2.090036e+000 3.672366e-001 -6.404169e+000 147 111 51
9.166309e-001 6.522185e-001 -5.479113e+000 104 11 16
-8.479898e-002 6.731062e-001 -5.382008e+000 106 9 21
-9.026534e-001 5.633605e-001 -4.550826e+000 255 254 254
-9.074941e-001 8.422780e-001 -4.502307e+000 224 166 176
-9.403085e-001 8.410686e-001 -4.509576e+000 227 167 179
-1.048031e+000 8.416385e-001 -4.517887e+000 133 74 96
4.491634e-001 1.188558e+000 -5.531871e+000 161 21 32
1.599809e+000 1.313981e+000 -5.262011e+000 69 31 28
1.599809e+000 1.313981e+000 -5.262011e+000 69 31 28
2.708591e+000 -2.902565e+000 -9.917855e+000 59 47 61
2.325227e+000 -2.277131e+000 -1.095379e+001 121 117 134
9.104260e-001 1.448842e-002 -5.620249e+000 173 134 153
2.136439e+000 6.240484e-001 -6.269049e+000 111 64 25
-8.835178e-001 4.975407e-001 -4.549079e+000 165 216 253
-1.006199e+000 5.181294e-001 -4.548495e+000 168 157 198
-6.378717e-001 6.934092e-001 -4.527957e+000 170 104 126
-9.323118e-001 8.092894e-001 -4.497015e+000 174 107 127
-9.323118e-001 8.092894e-001 -4.497015e+000 174 107 127
1.722332e+000 1.436623e+000 -5.411171e+000 69 30 30
2.990035e+000 -3.064189e+000 -9.180342e+000 56 47 63
2.536064e+000 -2.957361e+000 -1.035003e+001 103 99 121
2.286943e+000 -3.069922e+000 -1.116079e+001 108 101 118
1.765219e+000 -3.462025e+000 -1.275882e+001 97 90 106
2.631642e+000 -2.621365e+000 -1.015461e+001 119 113 129
2.407997e+000 -2.603232e+000 -1.072140e+001 64 53 67
2.326050e+000 -2.396698e+000 -1.106982e+001 73 53 61
2.278414e+000 -2.402807e+000 -1.113187e+001 124 120 134
2.278414e+000 -2.402807e+000 -1.113187e+001 124 120 134
2.487315e+000 -5.601162e-001 -5.405157e+000 240 183 194
2.505753e+000 -5.258131e-001 -5.343350e+000 243 196 214
2.515181e+000 -4.415299e-001 -5.321317e+000 234 171 187
2.194252e+000 -5.679943e-001 -6.148909e+000 177 147 41
2.519567e+000 -3.885732e-001 -5.291306e+000 237 187 201
9.584576e-001 6.420851e-002 -5.582905e+000 171 124 141
-5.307950e-001 4.838720e-002 -4.700970e+000 226 178 187
-4.799489e-001 1.692285e-001 -4.617108e+000 157 101 112
-4.799489e-001 1.692285e-001 -4.617108e+000 157 101 112
-9.246994e-001 1.712278e-001 -4.584150e+000 215 151 168
-4.844165e-001 3.284894e-001 -4.569021e+000 157 99 111
1.139313e-001 6.656694e-001 -5.350412e+000 233 218 229
1.425762e-001 6.844254e-001 -5.350044e+000 229 219 231
-8.855542e-001 7.235345e-001 -4.532734e+000 241 217 230
3.892599e-001 9.985690e-001 -5.519847e+000 203 132 150
-8.891961e-001 8.119963e-001 -4.498813e+000 178 107 123
-9.696562e-001 8.248372e-001 -4.498499e+000 232 172 179
4.483321e-001 1.110176e+000 -5.530367e+000 151 23 55
2.738059e+000 -3.352488e+000 -9.847200e+000 111 102 121
2.424577e+000 -3.672886e+000 -1.076923e+001 100 95 113
2.523803e+000 -3.514834e+000 -1.052831e+001 114 111 129
2.544369e+000 -3.172175e+000 -1.043020e+001 117 106 126
2.447865e+000 -2.947101e+000 -1.066077e+001 57 46 60
2.106870e+000 -2.238511e+000 -1.155910e+001 107 92 111
1.913064e+000 -2.409777e+000 -1.225927e+001 97 86 99
2.176877e+000 -7.804258e-001 -6.183885e+000 215 192 85
2.498231e+000 -4.694369e-001 -5.366166e+000 234 189 195
-1.036342e-001 6.442880e-001 -5.348552e+000 209 176 193
1.576525e+000 1.097822e+000 -5.171714e+000 159 96 109
5.705025e-001 1.045435e+000 -5.542349e+000 212 136 155
-2.298202e-002 5.849527e-001 -5.436532e+000 243 238 244
1.993817e+000 8.531731e-001 -6.234555e+000 193 133 142
2.088117e+000 -5.998065e-001 -6.314004e+000 219 186 70
-7.712753e-002 3.687320e-001 -5.528049e+000 235 234 243
2.290809e-002 1.561398e+000 -5.864048e+000 161 16 26
-6.087204e-002 2.529764e-001 -5.696108e+000 198 31 51
1.326223e+000 2.473683e-001 -5.528826e+000 188 119 130
1.418183e+000 3.644813e-001 -5.675508e+000 65 8 8
1.275010e+000 1.279007e+000 -5.339844e+000 184 138 151
-3.001486e+000 3.360346e+000 -1.235328e+001 24 22 27
-3.001486e+000 3.360346e+000 -1.235328e+001 24 22 27
-1.335984e+000 -2.897273e+000 -1.276982e+001 63 59 70
-1.152409e-001 7.609802e-001 -5.409848e+000 193 32 49
2.313060e+000 -1.112448e+000 -5.841265e+000 202 197 105
1.169148e+000 1.657900e-001 -5.525000e+000 189 123 137
2.811089e-001 5.714151e-001 -5.379252e+000 230 208 219
-1.024908e-001 6.268152e-001 -5.455401e+000 221 208 222
-1.116627e-001 7.562479e-001 -5.374416e+000 195 34 51
1.207816e+000 1.352588e+000 -5.938659e+000 157 20 30
1.580873e+000 1.463120e+000 -5.376594e+000 168 118 129
7.909987e-001 -5.072848e+000 -1.504733e+001 42 42 51
2.383492e+000 -3.705568e+000 -1.095992e+001 38 34 49
2.383492e+000 -3.705568e+000 -1.095992e+001 38 34 49
2.994453e+000 -2.960311e+000 -9.135433e+000 60 49 64
2.405800e+000 -2.044396e+000 -8.222574e+000 188 174 148
4.534008e-001 -3.286013e+000 -1.331722e+001 105 81 64
2.524469e+000 -3.328012e-001 -5.297619e+000 224 181 193
2.524469e+000 -3.328012e-001 -5.297619e+000 224 181 193
2.670006e+000 -3.246464e+000 -1.005292e+001 53 42 51
2.662783e+000 -3.236451e+000 -1.002550e+001 53 42 51
1.733841e+000 -3.751025e+000 -1.270826e+001 10 10 12
1.747945e+000 -3.781497e+000 -1.280278e+001 10 10 12
2.295937e+000 -1.941976e+000 -8.525786e+000 178 170 140
1.531801e+000 -2.631000e+000 -1.267950e+001 110 83 65
1.394790e+000 -2.571308e+000 -1.266766e+001 18 29 45
2.062900e+000 -2.184153e+000 -1.170400e+001 54 40 42
2.486936e+000 -5.648943e-001 -5.341249e+000 225 192 209
5.554386e-001 1.830490e-001 -5.662048e+000 211 42 80
-9.314810e-001 6.680091e-001 -4.535350e+000 179 225 255
-8.366097e-001 8.299455e-001 -4.487957e+000 225 165 176
-9.844127e-001 8.607573e-001 -4.500554e+000 152 97 120
1.723583e+000 1.436182e+000 -5.414475e+000 69 30 30
6.273822e-001 1.752372e+000 -5.855910e+000 69 1 0
2.316048e+000 -3.967735e+000 -1.106495e+001 84 79 97
2.532502e+000 -3.363609e+000 -1.053390e+001 98 89 106
2.854074e+000 -2.903069e+000 -9.433909e+000 56 43 54
2.708905e+000 -2.901623e+000 -9.919007e+000 59 47 61
2.512243e+000 -3.019449e+000 -1.052635e+001 59 52 64
2.512243e+000 -3.019449e+000 -1.052635e+001 59 52 64
1.584590e+000 -3.301731e+000 -1.335311e+001 81 74 84
1.654024e+000 -2.817675e+000 -1.288548e+001 47 38 45
1.976671e+000 -2.346990e+000 -1.188600e+001 52 42 42
1.888666e+000 -1.119689e+000 -6.772213e+000 203 182 70
2.489989e+000 -5.672601e-001 -5.347079e+000 228 196 213
2.530404e+000 -3.291621e-001 -5.274466e+000 245 190 207
5.358782e-001 -2.178076e-001 -5.648260e+000 123 6 14
5.358782e-001 -2.178076e-001 -5.648260e+000 123 6 14
2.131366e+000 -2.438225e-001 -6.129069e+000 114 69 10
-8.983171e-001 -1.054030e-001 -4.971306e+000 35 44 92
-5.530768e-001 -5.249191e-003 -4.738094e+000 229 178 190
1.199775e+000 2.304014e-001 -5.565473e+000 173 95 107
4.849398e-001 2.813044e-001 -5.642124e+000 124 4 14
2.116090e+000 3.113155e-001 -6.389166e+000 84 49 7
-3.886234e-001 4.942207e-001 -4.602705e+000 207 155 168
2.186250e+000 6.482518e-001 -6.263185e+000 176 139 90
3.765779e-001 6.151090e-001 -5.431023e+000 154 28 45
-6.121324e-001 6.436959e-001 -4.548919e+000 189 126 143
-6.121324e-001 6.436959e-001 -4.548919e+000 189 126 143
-7.769473e-001 6.588940e-001 -4.572727e+000 247 228 240
3.025633e-001 7.467000e-001 -5.296841e+000 219 197 209
4.504129e-001 7.617667e-001 -5.355432e+000 246 224 228
4.504129e-001 7.617667e-001 -5.355432e+000 246 224 228
-6.373942e-001 6.938444e-001 -4.528419e+000 170 104 126
6.334934e-003 8.643310e-001 -5.476382e+000 175 25 37
-7.216676e-001 7.565941e-001 -4.507322e+000 233 177 193
5.151276e-001 9.116831e-001 -5.540593e+000 127 24 35
-1.026902e+000 8.142672e-001 -4.514236e+000 229 167 180
4.433229e-001 1.189294e+000 -5.523150e+000 155 24 37
1.232399e+000 1.153991e+000 -5.156240e+000 184 132 143
1.537999e+000 1.620250e+000 -5.490059e+000 98 65 48
2.809265e+000 -3.176732e+000 -9.635953e+000 52 45 57
2.429372e+000 -3.459290e+000 -1.073644e+001 105 97 118
2.825676e+000 -3.034042e+000 -9.627160e+000 118 111 128
2.160749e+000 -3.562109e+000 -1.146241e+001 85 77 96
2.108109e+000 -3.513225e+000 -1.164517e+001 39 35 49
2.787313e+000 -2.796801e+000 -9.696721e+000 57 41 47
2.787313e+000 -2.796801e+000 -9.696721e+000 57 41 47
2.403053e+000 -2.925447e+000 -1.088123e+001 57 46 55
1.630672e+000 -3.512016e+000 -1.311373e+001 88 85 103
2.442747e+000 -2.147983e+000 -8.173091e+000 187 177 143
1.695726e+000 -3.123790e+000 -1.289549e+001 54 48 60
2.295753e+000 -2.017457e+000 -8.473236e+000 113 98 80
2.115225e+000 -2.433912e+000 -1.165722e+001 63 47 56
1.968272e+000 -2.271121e+000 -1.210751e+001 61 47 49
1.806689e+000 -2.167895e+000 -1.252801e+001 62 47 49
2.184034e+000 -8.267526e-001 -6.225857e+000 214 191 78
2.138067e+000 -8.340656e-001 -6.285854e+000 216 192 86
2.490002e+000 -5.922959e-001 -5.415197e+000 221 70 104
2.493506e+000 -5.103618e-001 -5.390452e+000 240 180 193
2.048815e+000 -5.191867e-001 -6.472016e+000 228 191 78
2.239186e+000 -4.341264e-001 -6.083458e+000 229 196 57
2.239186e+000 -4.341264e-001 -6.083458e+000 229 196 57
2.188791e+000 -3.206875e-001 -6.135588e+000 98 62 2
2.163505e+000 -2.815203e-001 -6.141029e+000 121 76 14
2.536540e+000 -2.165754e-001 -5.292100e+000 240 192 195
-5.199439e-001 8.999009e-002 -4.655989e+000 218 170 181
-4.526714e-001 2.615372e-001 -4.603970e+000 225 164 172
2.136684e+000 3.254756e-001 -6.339652e+000 176 139 48
-3.542544e-001 5.399144e-001 -4.671722e+000 220 191 199
-1.026010e+000 5.614613e-001 -4.565218e+000 173 160 196
3.842079e-001 7.042458e-001 -5.367291e+000 243 214 219
1.665387e-001 7.558072e-001 -5.398353e+000 71 6 13
-9.718451e-001 7.008807e-001 -4.531972e+000 242 226 244
-8.946733e-001 7.864372e-001 -4.499698e+000 228 165 173
-9.486056e-001 8.719481e-001 -4.515447e+000 157 100 122
1.078344e-001 1.551739e+000 -5.819505e+000 108 2 1
-3.888187e+000 4.170889e+000 -1.196696e+001 147 93 86
2.188642e+000 -4.003278e+000 -1.140949e+001 51 45 59
2.230883e+000 -3.947672e+000 -1.129340e+001 89 87 105
9.450692e-001 -5.199337e+000 -1.494935e+001 49 48 57
2.564402e+000 -3.589041e+000 -1.040678e+001 111 107 131
2.220323e+000 -3.826967e+000 -1.125016e+001 88 85 102
2.681771e+000 -3.402947e+000 -1.007541e+001 59 54 71
2.379349e+000 -3.542644e+000 -1.095512e+001 99 95 118
2.302028e+000 -3.551105e+000 -1.109442e+001 56 46 58
2.596306e+000 -3.290886e+000 -1.030372e+001 63 47 57
2.355925e+000 -3.334991e+000 -1.088370e+001 53 46 61
2.513865e+000 -3.200528e+000 -1.050060e+001 68 58 74
2.144687e+000 -3.468111e+000 -1.156666e+001 88 81 97
1.614714e+000 -3.925897e+000 -1.314965e+001 36 26 32
2.504016e+000 -3.127495e+000 -1.056805e+001 101 93 110
1.966137e+000 -3.553738e+000 -1.211150e+001 52 47 68
1.966137e+000 -3.553738e+000 -1.211150e+001 52 47 68
2.656973e+000 -2.858763e+000 -1.004492e+001 46 34 46
2.090173e+000 -3.332271e+000 -1.180657e+001 90 78 86
2.090173e+000 -3.332271e+000 -1.180657e+001 90 78 86
1.970554e+000 -3.197924e+000 -1.206351e+001 57 49 60
1.969675e+000 -3.114916e+000 -1.202166e+001 89 85 99
1.969675e+000 -3.114916e+000 -1.202166e+001 89 85 99
2.041114e+000 -2.930538e+000 -1.186150e+001 66 59 74
2.041114e+000 -2.930538e+000 -1.186150e+001 66 59 74
2.497711e+000 -2.578834e+000 -1.051205e+001 106 99 115
2.497711e+000 -2.578834e+000 -1.051205e+001 106 99 115
2.410393e+000 -2.605250e+000 -1.073168e+001 64 53 67
2.410393e+000 -2.605250e+000 -1.073168e+001 64 53 67
1.258024e+000 -3.085577e+000 -1.425710e+001 74 67 78
2.311520e+000 -1.108279e+000 -5.837174e+000 197 196 106
2.340996e+000 -2.067669e+000 -1.098967e+001 71 60 79
2.195399e+000 -2.047427e+000 -1.123723e+001 91 79 87
2.195399e+000 -2.047427e+000 -1.123723e+001 91 79 87
2.030195e+000 -2.066028e+000 -1.180814e+001 62 50 55
2.500153e+000 -6.560640e-001 -5.311027e+000 247 138 75
2.538512e+000 -2.726225e-001 -5.259441e+000 234 190 210
2.546386e+000 -1.773691e-001 -5.284979e+000 237 193 207
-5.014472e-001 3.096482e-001 -4.572800e+000 216 162 175
-7.779523e-001 5.380808e-001 -4.553265e+000 181 161 192
3.371929e-003 6.374580e-001 -5.349750e+000 194 171 186
-9.787474e-001 5.863822e-001 -4.537571e+000 147 197 227
8.029840e-002 6.507344e-001 -5.348199e+000 239 225 235
-8.467781e-001 7.123356e-001 -4.527647e+000 235 199 216
5.379563e-001 9.236226e-001 -5.499711e+000 204 160 177
-7.433766e-001 8.104720e-001 -4.507725e+000 146 87 107
3.901638e-001 9.993119e-001 -5.522068e+000 203 132 150
-8.482084e-001 8.883903e-001 -4.519306e+000 216 161 173
4.020179e-001 1.149731e+000 -5.540920e+000 229 192 212
-3.887309e+000 3.697372e+000 -1.192565e+001 144 79 71
-5.322090e+000 3.771934e+000 -1.162470e+001 128 72 58
-5.322090e+000 3.771934e+000 -1.162470e+001 128 72 58
-5.477170e+000 3.762412e+000 -1.154852e+001 126 72 64
-5.477170e+000 3.762412e+000 -1.154852e+001 126 72 64
-3.278811e+000 3.870558e+000 -1.205521e+001 142 89 80
-3.278811e+000 3.870558e+000 -1.205521e+001 142 89 80
-4.883298e+000 3.960608e+000 -1.168292e+001 134 72 65
-4.828830e+000 4.042019e+000 -1.162906e+001 135 75 58
-3.471522e+000 4.156769e+000 -1.203191e+001 143 85 86
6.591974e-001 3.301423e-001 -5.477894e+000 210 33 57
6.591974e-001 3.301423e-001 -5.477894e+000 210 33 57
-7.936487e-001 6.379188e-001 -4.534876e+000 161 183 219
2.149902e+000 1.143746e+000 -5.892755e+000 212 176 116
7.655938e-001 1.276241e-001 -5.664321e+000 238 231 239
9.166129e-001 6.773403e-001 -5.482176e+000 147 17 25
-3.185813e+000 3.965296e+000 -1.493267e+001 28 25 33
-2.996440e+000 4.284539e+000 -1.708265e+001 96 85 103
2.519033e+000 1.854981e+000 -5.166321e+000 173 157 104
1.904296e+000 -1.006088e+000 -6.726109e+000 203 178 60
8.977116e-001 -2.370560e-002 -5.561966e+000 51 9 18
2.765251e-001 1.888186e-001 -5.560211e+000 203 42 84
6.511623e-001 2.479246e-001 -5.620665e+000 115 4 13
-5.826278e-001 4.722143e-001 -4.568300e+000 212 160 172
-7.996987e-001 5.875060e-001 -4.530202e+000 188 226 254
-9.351221e-001 7.257520e-001 -4.539473e+000 243 231 243
2.046233e+000 -2.314405e+000 -1.186577e+001 104 96 105
1.835836e+000 -1.792185e+000 -1.245511e+001 75 54 61
-8.691896e-001 -9.138641e-002 -4.994936e+000 251 253 255
8.345497e-001 5.797425e-002 -5.634352e+000 222 196 212
1.077890e+000 6.503995e-001 -5.426022e+000 102 6 13
-1.005076e+000 7.899154e-001 -4.501215e+000 173 111 132
5.602157e-001 1.006181e+000 -5.543995e+000 153 14 28
-7.803264e-001 1.004941e+000 -4.569052e+000 157 123 142
1.003573e+000 1.650193e+000 -5.690368e+000 140 25 36
2.931179e+000 -3.210617e+000 -9.303459e+000 123 117 137
2.931179e+000 -3.210617e+000 -9.303459e+000 123 117 137
2.710097e+000 -3.339363e+000 -9.978262e+000 117 111 132
2.285969e+000 -3.069065e+000 -1.115648e+001 108 101 118
2.556758e+000 -2.637358e+000 -1.030319e+001 67 55 65
2.556758e+000 -2.637358e+000 -1.030319e+001 67 55 65
2.331770e+000 -2.399148e+000 -1.108184e+001 73 53 61
2.116828e+000 -9.083583e-001 -6.293010e+000 211 187 86
2.182212e+000 -6.919643e-001 -6.186826e+000 162 136 39
2.144119e+000 -6.582965e-001 -6.262242e+000 164 169 118
2.226250e+000 -4.619541e-001 -6.069680e+000 225 194 63
2.227317e+000 -4.617725e-001 -6.074239e+000 225 194 63
1.410815e+000 2.529179e-001 -5.501208e+000 75 11 12
-5.073141e-001 3.296602e-001 -4.549409e+000 226 174 184
-8.403156e-001 4.627656e-001 -4.582300e+000 245 237 249
2.480818e+000 -3.521021e+000 -1.057059e+001 51 47 63
2.964667e+000 -3.039463e+000 -9.215783e+000 104 99 117
2.907061e+000 -3.044919e+000 -9.381938e+000 115 100 121
2.771398e+000 -3.138852e+000 -9.752531e+000 32 30 45
2.628446e+000 -3.219207e+000 -1.025793e+001 115 109 126
2.347649e+000 -3.334770e+000 -1.102111e+001 113 109 127
2.402078e+000 -2.851229e+000 -1.083027e+001 116 108 123
2.523081e+000 -2.481877e+000 -1.035351e+001 112 104 121
2.073300e+000 -2.030576e+000 -1.173479e+001 107 91 101
2.073300e+000 -2.030576e+000 -1.173479e+001 107 91 101
2.488489e+000 -5.411306e-001 -5.357715e+000 208 105 132
2.488489e+000 -5.411306e-001 -5.357715e+000 208 105 132
2.497956e+000 -4.929322e-001 -5.347940e+000 209 98 134
2.514391e+000 -4.161648e-001 -5.337970e+000 208 95 122
2.249999e+000 -4.190858e-001 -6.022641e+000 167 135 16
2.278273e+000 1.960922e-003 -5.965394e+000 167 136 16
2.278273e+000 1.960922e-003 -5.965394e+000 167 136 16
9.007367e-001 7.845622e-002 -5.582978e+000 223 194 208
2.471054e+000 1.073862e-001 -5.437584e+000 184 158 92
2.043885e-001 7.229151e-001 -5.354049e+000 187 156 176
-7.099465e-001 9.816711e-001 -4.579711e+000 132 93 111
-2.439445e+000 3.299376e+000 -1.206936e+001 91 86 95
-2.439445e+000 3.299376e+000 -1.206936e+001 91 86 95
2.102161e+000 5.384828e-001 -6.287849e+000 149 88 70
-4.518542e-001 -2.195181e-001 -5.282979e+000 158 131 133
5.143825e-001 1.365452e+000 -5.712569e+000 18 7 6
-2.464048e+000 1.858312e+000 -1.244115e+001 124 104 114
1.868412e+000 -1.095175e+000 -6.720201e+000 217 202 91
-4.731060e-001 -7.045654e-002 -4.969798e+000 248 206 217
1.329468e+000 1.656840e-001 -5.409924e+000 131 25 22
-9.060242e-001 2.829765e-001 -4.589677e+000 223 160 169
2.515941e-001 8.769975e-001 -5.492411e+000 231 42 72
1.427815e+000 1.353154e+000 -5.234289e+000 201 144 155
1.140357e+000 1.080335e-001 -5.393764e+000 134 59 62
9.717145e-001 1.091655e-001 -5.481286e+000 74 10 10
7.721963e-001 -2.252106e+000 -1.235907e+001 150 127 126
2.523831e+000 -5.157401e-001 -5.300187e+000 255 62 100
-7.734466e-001 3.860436e-001 -4.570254e+000 217 151 166
1.901795e+000 -1.022211e+000 -6.721853e+000 234 210 88
2.200227e+000 -5.975305e-001 -6.106989e+000 243 216 79
2.235307e+000 -4.936478e-001 -6.025787e+000 188 157 33
2.235307e+000 -4.936478e-001 -6.025787e+000 188 157 33
1.208104e+000 -2.823880e-001 -5.281925e+000 195 133 135
-1.037650e+000 3.490390e-001 -4.647588e+000 233 171 185
-5.138379e-001 4.197333e-001 -4.554367e+000 187 125 131
-5.507513e-001 4.871552e-001 -4.563101e+000 149 90 108
-8.969941e-001 8.764792e-001 -4.516837e+000 184 119 134
2.139018e+000 -7.950331e-001 -6.259123e+000 240 219 94
2.116406e+000 -8.014140e-001 -6.302402e+000 185 193 135
2.121876e+000 -8.038068e-001 -6.314342e+000 185 193 135
2.206262e+000 -7.127428e-001 -6.121285e+000 197 169 49
-9.123360e-001 3.213877e-001 -4.620979e+000 255 216 220
2.615567e+000 -3.060608e+000 -1.020632e+001 140 131 150
2.536722e+000 -2.689577e+000 -1.037713e+001 128 115 128
2.383006e+000 -2.814179e+000 -1.087241e+001 80 68 82
2.325301e+000 -2.804382e+000 -1.095884e+001 84 72 87
-1.290759e+000 -2.875810e+000 -1.325208e+001 85 46 56
2.186790e+000 -8.438215e-001 -6.162013e+000 200 173 44
2.147239e+000 -8.275614e-001 -6.224291e+000 196 170 45
1.975523e+000 -2.129900e+000 -1.200749e+001 74 49 49
2.226365e+000 -3.348156e-001 -6.067209e+000 206 172 32
-7.326939e-001 -1.251868e-001 -4.983328e+000 250 240 251
-9.599877e-001 -1.372386e-001 -5.005447e+000 155 201 235
-9.678682e-001 -9.013472e-002 -4.958877e+000 119 141 190
1.220750e+000 -5.064296e-002 -5.288802e+000 236 173 181
-4.856598e-001 4.461705e-002 -4.722559e+000 255 209 215
8.947303e-001 1.867865e-001 -5.655132e+000 150 41 66
-6.970650e-001 4.605120e-001 -4.573276e+000 202 131 146
3.347464e-001 6.964368e-001 -5.334168e+000 153 104 124
3.496740e-001 7.208228e-001 -5.345582e+000 247 224 229
-1.073109e+000 8.917066e-001 -4.559495e+000 249 196 203
8.968711e-001 5.618060e-001 -5.431871e+000 215 196 204
1.911721e+000 -3.295468e+000 -1.236171e+001 53 44 53
2.560905e+000 -3.585803e+000 -1.039663e+001 111 107 131
2.303565e+000 -3.552885e+000 -1.109636e+001 56 46 58
5.316443e-001 1.139148e+000 -5.554780e+000 142 34 59
4.924819e-001 1.147577e+000 -5.548293e+000 140 30 54
1.298602e-001 9.637850e-001 -5.527671e+000 238 44 79
1.700653e+000 2.980680e+000 -7.323836e+000 141 135 154
-1.914733e+000 2.154990e+000 -1.175760e+001 121 100 115
-4.312361e-002 8.298017e-001 -5.437361e+000 107 3 7
-2.867969e+000 1.183273e+000 -1.270670e+001 116 95 104
1.315056e+000 1.089369e+000 -5.798158e+000 215 42 64
4.867994e-002 1.359413e+000 -5.736734e+000 181 26 39
1.174920e-001 6.343992e-001 -5.344178e+000 104 39 63
8.481490e-001 7.603066e-001 -5.529924e+000 234 44 79
4.159809e-001 9.391919e-001 -5.511821e+000 181 35 56
5.756682e-001 1.151721e+000 -5.551436e+000 188 28 41
6.206139e-001 1.747359e+000 -5.829955e+000 96 5 3
2.641205e+000 -3.426084e+000 -1.018281e+001 128 117 138
1.106371e+000 -2.529716e-001 -5.296961e+000 244 181 189
1.818700e-001 6.152625e-001 -5.349663e+000 150 99 104
1.536663e+000 1.317261e+000 -5.231855e+000 185 130 132
1.361088e-001 1.301832e+000 -5.605407e+000 116 3 7
5.211987e-001 1.461496e+000 -5.789739e+000 179 29 36
-3.144500e-001 1.845091e+000 -9.621224e+000 6 6 4
6.663856e-001 1.734028e+000 -5.798758e+000 211 40 57
1.373178e+000 2.599419e+000 -8.002511e+000 19 14 17
1.637712e+000 -4.727495e+000 -1.321697e+001 92 88 103
2.083427e+000 -4.033703e+000 -1.180583e+001 117 113 130
2.044033e+000 -3.358087e+000 -1.189791e+001 74 62 78
2.044033e+000 -3.358087e+000 -1.189791e+001 74 62 78
2.204028e+000 -5.435756e-001 -6.106290e+000 246 219 83
-5.326704e-001 3.997925e-001 -4.547887e+000 247 197 208
4.585776e-001 9.284894e-001 -5.530964e+000 231 195 215
-3.120394e-001 1.785679e+000 -9.646475e+000 72 59 60
-6.090025e-001 1.852148e+000 -1.022861e+001 14 12 15
1.673143e+000 2.488848e+000 -7.439803e+000 114 95 81
2.629635e+000 -3.471202e+000 -1.025587e+001 124 118 149
2.878238e+000 -3.111536e+000 -9.470401e+000 142 138 159
1.792892e+000 -4.372911e+000 -1.273470e+001 107 103 120
2.305611e+000 -3.303335e+000 -1.111802e+001 116 110 129
1.841332e+000 -3.243542e+000 -1.249918e+001 110 102 119
-9.300271e-001 3.886740e-001 -4.596517e+000 229 166 184
-5.513485e-001 5.164538e-001 -4.592483e+000 196 138 152
-6.955829e-001 7.650086e-001 -4.505852e+000 198 130 142
-9.679973e-001 8.071602e-001 -4.492546e+000 195 122 141
-7.804034e-001 8.273592e-001 -4.494837e+000 218 164 175
4.485836e-001 9.863847e-001 -5.527113e+000 234 151 171
5.823087e-001 1.131453e+000 -5.554486e+000 159 29 51
3.991906e-001 1.121328e+000 -5.537555e+000 243 209 229
4.425885e-001 1.135289e+000 -5.542518e+000 225 203 227
1.226685e-001 1.700095e+000 -5.848062e+000 127 2 0
2.529077e+000 -2.498019e-001 -5.267585e+000 227 157 174
2.532831e+000 -2.508071e-001 -5.274864e+000 227 157 174
2.605604e+000 -1.923201e-001 -5.435218e+000 217 37 44
2.553385e+000 -3.040076e-001 -5.229129e+000 213 37 57
2.564251e+000 -2.222238e-001 -5.202789e+000 215 38 58
2.541792e+000 -1.646600e-001 -5.239175e+000 221 180 190
2.522463e+000 -2.186398e-002 -5.260306e+000 214 39 52
2.576520e+000 1.602292e-001 -5.131373e+000 220 188 205
2.585694e+000 -1.706764e-001 -5.119794e+000 210 98 45
-3.121038e+000 -4.428169e-001 -1.513270e+001 103 100 125
-7.260103e-001 7.571447e-001 -4.498720e+000 220 166 180
2.818339e+000 -3.046642e+000 -9.718245e+000 87 79 92
2.155364e+000 -9.824738e-001 -6.202929e+000 175 148 39
2.184006e+000 -6.245643e-001 -6.178794e+000 162 134 36
2.221086e+000 -5.007310e-001 -6.085259e+000 213 182 65
2.570636e+000 -3.053900e-001 -5.150140e+000 218 37 51
-3.138123e+000 -4.739750e-001 -1.530600e+001 105 101 122
2.192160e+000 5.775909e-001 -6.202487e+000 135 83 24
-2.294722e+000 5.211277e-001 -1.241621e+001 30 22 27
-2.294722e+000 5.211277e-001 -1.241621e+001 30 22 27
4.151954e-001 1.206108e+000 -5.548592e+000 205 168 181
4.151954e-001 1.206108e+000 -5.548592e+000 205 168 181
9.910959e-001 1.700281e+000 -5.664651e+000 144 21 29
2.723812e+000 -3.573308e+000 -9.935866e+000 56 54 64
2.197751e+000 -7.609258e-001 -6.131179e+000 159 131 35
2.197751e+000 -7.609258e-001 -6.131179e+000 159 131 35
2.242425e+000 -4.588995e-001 -6.030548e+000 172 142 32
2.561258e+000 -4.502414e-002 -5.176565e+000 221 186 200
2.564260e+000 1.506814e-003 -5.156364e+000 228 178 201
2.540052e+000 3.078432e-002 -5.230970e+000 229 167 175
2.540052e+000 3.078432e-002 -5.230970e+000 229 167 175
2.580758e+000 1.944674e-001 -5.112810e+000 208 42 65
2.595233e+000 2.915938e-001 -5.088400e+000 190 71 99
2.595233e+000 2.915938e-001 -5.088400e+000 190 71 99
-9.295109e-001 3.653755e-001 -4.597771e+000 230 170 184
-1.913531e+000 6.836985e-001 -1.182361e+001 39 29 37
-1.913531e+000 6.836985e-001 -1.182361e+001 39 29 37
-7.778588e-001 5.374081e-001 -4.547939e+000 166 140 175
-1.106285e+000 7.281972e-001 -4.522387e+000 177 111 130
3.593996e-001 9.844469e-001 -5.512914e+000 147 25 40
3.881398e-001 9.981375e-001 -5.518249e+000 183 112 129
5.659883e-001 1.077455e+000 -5.545283e+000 132 8 22
2.809691e+000 -2.961959e+000 -9.619404e+000 41 31 41
2.154360e+000 -8.894616e-001 -6.221814e+000 205 177 65
2.538460e+000 -2.708999e-001 -5.252123e+000 234 185 202
2.532567e+000 -1.748799e-001 -5.259992e+000 230 182 190
2.556369e+000 -1.663735e-002 -5.189308e+000 190 82 110
2.556369e+000 -1.663735e-002 -5.189308e+000 190 82 110
2.592048e+000 2.132063e-001 -5.082470e+000 250 156 168
2.592048e+000 2.132063e-001 -5.082470e+000 250 156 168
2.570867e+000 7.415406e-002 -5.165821e+000 231 165 179
2.570867e+000 7.415406e-002 -5.165821e+000 231 165 179
2.543613e+000 -1.635394e-001 -5.241071e+000 221 180 190
2.578937e+000 1.337265e-002 -5.124462e+000 207 46 66
2.538367e+000 -8.358114e-002 -5.246030e+000 228 185 199
2.387796e+000 -5.463429e-001 -5.645670e+000 164 134 16
2.234959e+000 -5.317607e-001 -6.053134e+000 154 125 24
2.531865e+000 -3.290486e-001 -5.276309e+000 229 182 199
2.246541e+000 -2.135066e-001 -6.029579e+000 164 134 26
2.372291e+000 -6.967349e-001 -5.708810e+000 159 131 23
2.485546e+000 -4.787702e-001 -5.388684e+000 206 64 74
2.431253e+000 -2.316259e-001 -5.548493e+000 175 143 24
2.551600e+000 -7.035612e-002 -5.209054e+000 194 79 112
2.548900e+000 4.912187e-002 -5.203658e+000 199 76 92
2.588297e+000 1.685041e-001 -5.098827e+000 233 168 187
2.548313e+000 2.393958e-001 -5.154313e+000 255 59 95
2.579280e+000 2.554679e-002 -5.200280e+000 226 168 192
2.654179e+000 4.024430e-001 -4.915253e+000 250 146 73
2.616241e+000 2.317680e-001 -5.045135e+000 255 63 106
2.592434e+000 1.559921e-001 -5.058079e+000 255 65 107
-7.435148e-001 1.120302e+000 -1.013882e+001 67 52 60
2.521894e+000 1.266865e+000 -4.749126e+000 252 200 98
2.602218e+000 3.018199e-001 -5.057214e+000 255 198 213
2.584982e+000 2.352431e-001 -5.098852e+000 247 69 109
1.891742e+000 -1.049445e+000 -6.786589e+000 43 25 2
2.123392e+000 -5.930852e-001 -6.392680e+000 225 194 65
-2.084639e+000 5.805017e+000 -1.005730e+001 144 134 154
-2.084639e+000 5.805017e+000 -1.005730e+001 144 134 154
3.839797e-001 8.328079e-002 -5.875001e+000 76 0 0
-8.721855e-001 -2.174554e-001 -5.015548e+000 18 22 29
2.567415e+000 1.763628e+000 -4.893971e+000 140 115 13
1.224006e+000 2.242848e-001 -8.238015e+000 14 12 13
1.918031e+000 -8.470715e-001 -6.729479e+000 214 186 52
-9.155577e-001 -2.612001e-001 -5.102057e+000 180 210 246
1.282226e+000 -4.454109e-002 -8.286532e+000 148 144 164
1.867444e+000 -6.401526e-001 -6.926623e+000 205 179 50
1.557892e+000 -7.990838e-002 -7.652644e+000 163 141 40
-1.915414e+000 3.575729e+000 -1.072744e+001 20 17 19
-8.439845e-001 5.908762e+000 -1.020939e+001 100 93 109
-1.893661e+000 5.863563e+000 -9.902405e+000 14 83 114
-4.560600e-001 8.693069e+000 -1.108002e+001 104 80 99
-9.980022e-001 8.497095e+000 -1.076483e+001 107 58 72
2.510070e+000 7.494685e-002 -5.200807e+000 244 50 76
2.639618e+000 5.319106e-001 -5.016261e+000 197 96 122
9.787558e-001 2.689149e-001 -8.789922e+000 142 135 156
1.563539e+000 -4.098924e-001 -7.546999e+000 192 169 53
1.521849e+000 -2.664726e-001 -7.681107e+000 182 161 43
1.511969e+000 -1.337828e-001 -7.720912e+000 124 108 55
1.910059e+000 -1.001626e+000 -6.749445e+000 209 182 55
-2.063423e+000 5.587084e+000 -1.077204e+001 0 55 99
-7.643807e-001 -1.176107e-001 -4.884783e+000 233 173 180
-6.328611e-002 8.366983e+000 -1.123936e+001 89 73 85
-6.328611e-002 8.366983e+000 -1.123936e+001 89 73 85
2.568202e+000 -1.441886e-001 -5.175135e+000 239 48 75
-8.175051e-002 8.587789e+000 -1.111461e+001 115 72 91
2.699792e+000 4.911133e-001 -4.824589e+000 237 47 65
9.656182e-001 1.421062e-001 -8.832787e+000 155 151 173
1.192709e+000 1.648046e-002 -8.388515e+000 19 14 17
-3.798071e-001 1.298645e+000 -9.515885e+000 114 93 104
1.538127e+000 -1.944872e-001 -7.685050e+000 175 152 50
-9.926338e-001 -3.434049e-001 -5.286910e+000 139 96 115
-2.148246e+000 5.702139e+000 -1.022056e+001 30 84 110
2.265829e+000 -3.320437e-002 -5.946143e+000 187 154 44
2.265829e+000 -3.320437e-002 -5.946143e+000 187 154 44
-1.087230e+000 5.829161e+000 -1.030750e+001 79 60 64
-2.076092e+000 5.787740e+000 -1.002892e+001 146 135 156
-2.197409e+000 5.830782e+000 -9.904720e+000 24 87 121
-1.140963e+000 5.887096e+000 -1.008210e+001 99 92 111
-1.140963e+000 5.887096e+000 -1.008210e+001 99 92 111
-9.188437e-001 -1.740095e-001 -4.984619e+000 21 33 77
-8.111214e-001 -1.480099e-001 -4.949574e+000 170 224 254
-6.240508e-001 -1.390051e-001 -4.849854e+000 227 176 187
2.562308e+000 1.527039e-001 -5.129465e+000 236 202 216
2.480210e+000 1.783833e+000 -5.070399e+000 148 125 76
8.291568e-001 3.390331e-001 -9.158839e+000 165 148 162
8.847260e-001 3.594500e-001 -9.043116e+000 152 140 157
1.177156e+000 -7.026482e-002 -8.432784e+000 19 16 22
8.528607e-001 6.377785e-001 -8.988493e+000 131 122 141
8.528607e-001 6.377785e-001 -8.988493e+000 131 122 141
8.841876e-001 6.179484e-001 -8.939446e+000 129 121 134
1.657106e+000 -4.313193e-001 -7.346236e+000 196 174 54
1.748171e+000 -5.912311e-001 -7.162744e+000 151 121 101
1.688908e+000 -2.751415e-001 -7.320558e+000 196 174 51
2.156100e+000 -9.826183e-001 -6.205006e+000 181 152 32
2.165506e+000 -7.722839e-001 -6.226679e+000 164 134 20
2.168418e+000 -5.850981e-001 -6.176806e+000 233 197 67
-2.271328e+000 5.734894e+000 -1.014454e+001 20 77 100
-2.247864e+000 5.772759e+000 -1.001290e+001 29 87 115
-9.643110e-001 5.887921e+000 -1.021188e+001 9 37 76
-2.129847e+000 5.820176e+000 -9.951160e+000 12 56 66
-1.823441e+000 5.835159e+000 -1.000038e+001 6 22 29
-2.016580e+000 5.833679e+000 -9.951008e+000 0 33 53
-1.532751e+000 5.854254e+000 -1.002516e+001 123 110 132
-7.028198e-001 -1.597095e-001 -4.952164e+000 200 140 153
-6.511585e-001 -1.336513e-001 -4.897668e+000 131 82 103
-5.852672e-001 -1.426103e-001 -4.866323e+000 144 87 100
2.534267e+000 -8.598211e-002 -5.244526e+000 240 208 219
-1.292809e-001 8.409523e+000 -1.115254e+001 36 43 73
-1.114765e+000 3.716542e-001 -4.650621e+000 248 187 198
4.266543e+000 1.733866e+000 -5.139811e+000 114 91 108
2.532608e+000 1.808454e+000 -4.935706e+000 211 182 62
8.224381e-001 2.783601e-001 -9.134426e+000 167 143 158
1.000757e+000 8.935142e-002 -8.821825e+000 98 90 110
1.039555e+000 2.537926e-001 -8.729166e+000 137 134 150
7.950551e-001 6.133996e-001 -9.130411e+000 124 20 32
9.705256e-001 5.269895e-001 -8.773787e+000 54 50 67
9.705256e-001 5.269895e-001 -8.773787e+000 54 50 67
1.075971e+000 3.801110e-001 -8.603400e+000 65 63 77
9.050315e-001 6.780110e-001 -8.918496e+000 127 108 122
9.050315e-001 6.780110e-001 -8.918496e+000 127 108 122
1.475302e+000 -2.820082e-001 -7.778167e+000 182 161 54
9.050317e-001 7.415054e-001 -8.866352e+000 119 92 99
9.777541e-001 6.714006e-001 -8.764949e+000 51 45 51
9.517019e-001 7.057519e-001 -8.762379e+000 98 84 98
1.056244e+000 6.875883e-001 -8.613292e+000 36 30 37
1.647535e+000 -3.931284e-001 -7.392300e+000 134 99 34
1.640601e+000 -3.420471e-001 -7.416604e+000 176 139 59
1.666853e+000 -1.917956e-001 -7.377857e+000 165 144 50
1.537102e+000 1.014876e-001 -7.633225e+000 16 15 10
2.152031e+000 -8.313985e-001 -6.235830e+000 178 147 28
2.152031e+000 -8.313985e-001 -6.235830e+000 178 147 28
2.224245e+000 -6.311112e-001 -6.093177e+000 168 139 24
2.197706e+000 -5.695249e-001 -6.150389e+000 184 154 41
2.235226e+000 -5.326320e-001 -6.052173e+000 178 147 29
-8.752915e-001 -2.827698e-001 -5.118822e+000 242 236 249
-1.749831e+000 5.828449e+000 -1.001542e+001 12 65 98
-1.749831e+000 5.828449e+000 -1.001542e+001 12 65 98
-8.243090e-002 3.213282e-001 -5.482468e+000 200 164 176
2.563353e+000 -1.749338e-003 -5.159179e+000 250 193 220
-1.047653e+000 4.013963e-002 -4.800908e+000 184 117 135
-1.141929e+000 3.875087e-001 -4.668855e+000 214 142 155
4.249741e+000 1.508161e+000 -5.246133e+000 108 84 99
8.410484e-001 5.063045e-001 -9.074120e+000 164 132 147
1.190611e+000 9.783807e-002 -8.381066e+000 28 24 36
1.057175e+000 3.721431e-001 -8.678922e+000 116 112 125
1.204971e+000 1.581144e-001 -8.356777e+000 19 14 21
1.062147e+000 4.593277e-001 -8.632367e+000 97 94 107
1.670535e+000 -4.727420e-001 -7.332936e+000 162 133 28
8.470282e-001 1.032840e+000 -8.930291e+000 57 12 12
1.941588e+000 -9.731178e-001 -6.682478e+000 57 26 0
-3.805408e-001 5.844098e+000 -1.045933e+001 16 14 28
-2.046812e+000 5.847557e+000 -9.858604e+000 1 32 47
-7.569101e-001 -1.679279e-001 -4.992712e+000 164 184 222
6.422125e-003 1.054327e-001 -3.569090e-002 0 255 0
6.509035e-003 1.050655e-001 -8.568948e-002 255 255 0
-6.046105e-001 7.806321e-001 2.843731e-001 255 0 0
-6.017413e-001 7.779380e-001 2.345283e-001 255 255 0
-1.197686e+000 3.012393e-001 -3.760650e-001 0 255 0
-1.186170e+000 2.992782e-001 -4.246812e-001 255 255 0
-1.197693e+000 2.262232e+000 -1.962986e-001 255 0 0
-1.185125e+000 2.251863e+000 -2.435695e-001 255 255 0
-2.346715e+000 -3.489015e+000 -2.187455e+000 0 255 0
-2.327376e+000 -3.455800e+000 -2.219436e+000 255 255 0
-9.207377e-001 -4.921773e+000 -3.438687e+000 255 0 0
-9.120907e-001 -4.877658e+000 -3.460575e+000 255 255 0
