ply
format ascii 1.0
element face 0
property list uchar int vertex_indices
element vertex 847
property float x
property float y
property float z
property uchar diffuse_red
property uchar diffuse_green
property uchar diffuse_blue
end_header
1.848152e+000 -1.126299e+000 -6.718598e+000 203 182 70
2.114769e+000 -8.658342e-001 -6.164798e+000 221 195 83
2.114769e+000 -8.658342e-001 -6.164798e+000 221 195 83
2.137520e+000 -8.577360e-001 -6.132253e+000 177 153 51
2.135684e+000 -7.560924e-001 -6.136961e+000 214 189 76
2.125772e+000 -7.957080e-001 -6.150533e+000 215 192 85
2.448084e+000 -4.797681e-001 -5.336886e+000 226 181 185
2.095578e+000 -9.589059e-001 -6.204533e+000 212 189 70
2.150303e+000 -6.845249e-001 -6.121979e+000 215 190 73
1.844709e+000 -1.083935e+000 -6.709977e+000 41 28 0
1.844709e+000 -1.083935e+000 -6.709977e+000 41 28 0
2.455312e+000 -3.682575e-001 -5.324472e+000 234 192 195
2.446736e+000 -4.166339e-001 -5.340398e+000 240 179 181
-8.476265e-001 5.162761e-001 -4.534176e+000 22 27 46
-8.461744e-001 5.166975e-001 -4.534200e+000 22 27 46
-8.461744e-001 5.166975e-001 -4.534200e+000 22 27 46
-8.250032e-001 -2.077054e-001 -5.005524e+000 23 24 28
8.508051e-001 5.371669e-002 -5.605069e+000 210 177 196
7.045079e-002 3.455812e-001 -5.477242e+000 144 19 27
-8.898720e-001 6.276181e-001 -4.556218e+000 201 211 244
1.009651e+000 -8.843040e-003 -5.432110e+000 173 109 126
9.859083e-001 5.476269e-001 -5.462677e+000 213 194 208
9.859083e-001 5.476269e-001 -5.462677e+000 213 194 208
3.690328e-001 4.796411e-001 -5.348267e+000 73 2 3
-8.332939e-001 3.936912e-001 -4.588184e+000 190 201 238
4.649897e-001 9.655089e-001 -5.508097e+000 163 18 29
2.261838e+000 -1.116934e+000 -5.819152e+000 202 197 105
1.700710e-002 4.426688e-001 -5.445070e+000 224 55 95
1.700710e-002 4.426688e-001 -5.445070e+000 224 55 95
8.172797e-001 5.429423e-001 -5.464274e+000 95 0 2
-5.472424e-001 4.417951e-001 -4.608458e+000 108 54 70
1.718808e-001 6.346655e-001 -5.364103e+000 218 203 221
-8.939372e-001 5.166849e-001 -4.514792e+000 17 20 27
4.112832e-001 1.054743e+000 -5.513859e+000 171 150 172
2.443062e+000 -4.787266e-001 -5.326654e+000 226 181 185
9.407322e-001 1.526963e-001 -5.661200e+000 99 3 5
-4.661203e-001 3.139232e-001 -4.557993e+000 156 98 112
1.025144e+000 6.330610e-001 -5.461578e+000 45 10 7
1.322215e-001 5.648812e-001 -5.347604e+000 82 11 26
-5.617202e-001 4.835112e-001 -4.597948e+000 235 181 194
-9.337467e-001 4.689962e-001 -4.560096e+000 183 230 255
9.344599e-001 -2.211125e-002 -5.560681e+000 66 13 22
1.209871e+000 8.573123e-002 -5.461580e+000 95 35 39
1.090524e+000 9.372051e-002 -5.515738e+000 172 101 113
7.063996e-001 1.635880e-001 -5.624747e+000 111 13 20
2.036151e+000 3.176076e-001 -6.366549e+000 147 111 51
8.979688e-001 5.848319e-001 -5.459284e+000 104 11 16
-7.217355e-002 5.987403e-001 -5.359833e+000 106 9 21
-8.584711e-001 4.855615e-001 -4.549078e+000 255 254 254
-8.644988e-001 7.551772e-001 -4.501192e+000 224 166 176
-8.962862e-001 7.538312e-001 -4.508063e+000 227 167 179
-1.000524e+000 7.537425e-001 -4.515351e+000 133 74 96
4.413294e-001 1.101815e+000 -5.506474e+000 161 21 32
1.557018e+000 1.229826e+000 -5.250419e+000 69 31 28
1.557018e+000 1.229826e+000 -5.250419e+000 69 31 28
2.657686e+000 -2.868785e+000 -9.829666e+000 59 47 61
2.276673e+000 -2.260803e+000 -1.084864e+001 121 117 134
8.953221e-001 -3.308905e-002 -5.597708e+000 173 134 153
2.079926e+000 5.669414e-001 -6.234587e+000 111 64 25
-8.395532e-001 4.219872e-001 -4.547476e+000 165 216 253
-9.583382e-001 4.411878e-001 -4.546325e+000 168 157 198
-6.030026e-001 6.128861e-001 -4.528117e+000 170 104 126
-8.882682e-001 7.231111e-001 -4.496025e+000 174 107 127
-8.882682e-001 7.231111e-001 -4.496025e+000 174 107 127
1.674834e+000 1.350062e+000 -5.395837e+000 69 30 30
2.935053e+000 -3.023610e+000 -9.105703e+000 56 47 63
2.488719e+000 -2.924623e+000 -1.025557e+001 103 99 121
2.244418e+000 -3.038921e+000 -1.105701e+001 108 101 118
1.732032e+000 -3.432643e+000 -1.264293e+001 97 90 106
2.580055e+000 -2.594436e+000 -1.006157e+001 119 113 129
2.360314e+000 -2.579342e+000 -1.062043e+001 64 53 67
2.278157e+000 -2.378256e+000 -1.096411e+001 73 53 61
2.231434e+000 -2.384651e+000 -1.102531e+001 124 120 134
2.231434e+000 -2.384651e+000 -1.102531e+001 124 120 134
2.429157e+000 -5.812086e-001 -5.397427e+000 240 183 194
2.446894e+000 -5.478704e-001 -5.337333e+000 243 196 214
2.455510e+000 -4.660969e-001 -5.315767e+000 234 171 187
2.143713e+000 -5.901371e-001 -6.120211e+000 177 147 41
2.459444e+000 -4.147428e-001 -5.286484e+000 237 187 201
9.417110e-001 1.534513e-002 -5.561518e+000 171 124 141
-4.965556e-001 -1.019596e-002 -4.697802e+000 226 178 187
-4.475929e-001 1.069115e-001 -4.616604e+000 157 101 112
-4.475929e-001 1.069115e-001 -4.616604e+000 157 101 112
-8.777002e-001 1.061414e-001 -4.582392e+000 215 151 168
-4.526135e-001 2.608859e-001 -4.569798e+000 157 99 111
1.204874e-001 5.926159e-001 -5.329781e+000 233 218 229
1.481266e-001 6.109586e-001 -5.329529e+000 229 219 231
-8.427718e-001 6.405417e-001 -4.531137e+000 241 217 230
3.844771e-001 9.173001e-001 -5.494966e+000 203 132 150
-8.466008e-001 7.259930e-001 -4.498023e+000 178 107 123
-9.244990e-001 7.379210e-001 -4.497169e+000 232 172 179
4.410056e-001 1.025850e+000 -5.505213e+000 151 23 55
2.690032e+000 -3.309263e+000 -9.762549e+000 111 102 121
2.384296e+000 -3.628465e+000 -1.067325e+001 100 95 113
2.480674e+000 -3.471976e+000 -1.043482e+001 114 111 129
2.498364e+000 -3.135414e+000 -1.033601e+001 117 106 126
2.401899e+000 -2.915996e+000 -1.056228e+001 57 46 60
2.061533e+000 -2.225492e+000 -1.144732e+001 107 92 111
1.871331e+000 -2.396303e+000 -1.214265e+001 97 86 99
2.128100e+000 -7.964934e-001 -6.154603e+000 215 192 85
2.439191e+000 -4.932247e-001 -5.359356e+000 234 189 195
-9.007718e-002 5.706232e-001 -5.327293e+000 209 176 193
1.535874e+000 1.019878e+000 -5.162921e+000 159 96 109
5.597642e-001 9.639093e-001 -5.517683e+000 212 136 155
-1.201980e-002 5.138159e-001 -5.413470e+000 243 238 244
1.939845e+000 7.883132e-001 -6.199083e+000 193 133 142
2.040284e+000 -6.214474e-001 -6.280048e+000 219 186 70
-6.365106e-002 3.041589e-001 -5.502615e+000 235 234 243
2.448178e-002 1.462003e+000 -5.827145e+000 161 16 26
-4.805102e-002 1.923742e-001 -5.666362e+000 198 31 51
1.297367e+000 1.950052e-001 -5.510506e+000 188 119 130
1.385430e+000 3.093761e-001 -5.653321e+000 65 8 8
1.242054e+000 1.194028e+000 -5.324227e+000 184 138 151
-2.989045e+000 3.238373e+000 -1.220878e+001 24 22 27
-2.989045e+000 3.238373e+000 -1.220878e+001 24 22 27
-1.316864e+000 -2.894954e+000 -1.263043e+001 63 59 70
-1.023889e-001 6.836757e-001 -5.385997e+000 193 32 49
2.262894e+000 -1.117921e+000 -5.821680e+000 202 197 105
1.145598e+000 1.149735e-001 -5.506293e+000 189 123 137
2.829896e-001 5.024078e-001 -5.359499e+000 230 208 219
-8.940984e-002 5.539429e-001 -5.431262e+000 221 208 222
-9.865870e-002 6.790916e-001 -5.352209e+000 195 34 51
1.174706e+000 1.267079e+000 -5.906193e+000 157 20 30
1.537359e+000 1.374518e+000 -5.360771e+000 168 118 129
7.767345e-001 -5.039066e+000 -1.493547e+001 42 42 51
2.344126e+000 -3.661838e+000 -1.086261e+001 38 34 49
2.344126e+000 -3.661838e+000 -1.086261e+001 38 34 49
2.938748e+000 -2.921997e+000 -9.061487e+000 60 49 64
2.356917e+000 -2.027054e+000 -8.153920e+000 188 174 148
4.399013e-001 -3.269104e+000 -1.319074e+001 105 81 64
2.463615e+000 -3.605562e-001 -5.292088e+000 224 181 193
2.463615e+000 -3.605562e-001 -5.292088e+000 224 181 193
2.622381e+000 -3.206425e+000 -9.964584e+000 53 42 51
2.615332e+000 -3.196591e+000 -9.937554e+000 53 42 51
1.703489e+000 -3.717340e+000 -1.259508e+001 10 10 12
1.717249e+000 -3.747457e+000 -1.268884e+001 10 10 12
2.248648e+000 -1.928247e+000 -8.450739e+000 178 170 140
1.497596e+000 -2.617022e+000 -1.256013e+001 110 83 65
1.362661e+000 -2.559074e+000 -1.254708e+001 18 29 45
2.017929e+000 -2.172854e+000 -1.159132e+001 54 40 42
2.429085e+000 -5.859148e-001 -5.335686e+000 225 192 209
5.500291e-001 1.282332e-001 -5.636684e+000 211 42 80
-8.869005e-001 5.865765e-001 -4.533593e+000 179 225 255
-7.957785e-001 7.436532e-001 -4.487740e+000 225 165 176
-9.389713e-001 7.726066e-001 -4.498872e+000 152 97 120
1.675788e+000 1.349448e+000 -5.398246e+000 69 30 30
6.095985e-001 1.650941e+000 -5.821873e+000 69 1 0
2.279780e+000 -3.920084e+000 -1.096758e+001 84 79 97
2.488048e+000 -3.323639e+000 -1.043956e+001 98 89 106
2.800517e+000 -2.867234e+000 -9.353533e+000 56 43 54
2.657971e+000 -2.867864e+000 -9.830752e+000 59 47 61
2.465674e+000 -2.986206e+000 -1.043018e+001 59 52 64
2.465674e+000 -2.986206e+000 -1.043018e+001 59 52 64
1.552248e+000 -3.278802e+000 -1.323563e+001 81 74 84
1.618420e+000 -2.800507e+000 -1.276722e+001 47 38 45
1.934126e+000 -2.333524e+000 -1.177224e+001 52 42 42
1.849088e+000 -1.127699e+000 -6.727582e+000 203 182 70
2.431667e+000 -5.880556e-001 -5.340571e+000 228 196 213
2.469393e+000 -3.570192e-001 -5.269635e+000 245 190 207
5.335560e-001 -2.605333e-001 -5.623985e+000 123 6 14
5.335560e-001 -2.605333e-001 -5.623985e+000 123 6 14
2.080298e+000 -2.757383e-001 -6.099187e+000 114 69 10
-8.530572e-001 -1.609371e-001 -4.958193e+000 35 44 92
-5.180332e-001 -6.221448e-002 -4.733930e+000 229 178 190
1.174776e+000 1.778588e-001 -5.545649e+000 173 95 107
4.811655e-001 2.230259e-001 -5.616733e+000 124 4 14
2.061639e+000 2.634289e-001 -6.351587e+000 84 49 7
-3.611001e-001 4.218692e-001 -4.602582e+000 207 155 168
2.127903e+000 5.906728e-001 -6.228273e+000 176 139 90
3.750085e-001 5.454467e-001 -5.410189e+000 154 28 45
-5.779154e-001 5.650112e-001 -4.548769e+000 189 126 143
-5.779154e-001 5.650112e-001 -4.548769e+000 189 126 143
-7.375925e-001 5.787799e-001 -4.570792e+000 247 228 240
3.030878e-001 6.721567e-001 -5.279131e+000 219 197 209
4.459935e-001 6.878081e-001 -5.336767e+000 246 224 228
4.459935e-001 6.878081e-001 -5.336767e+000 246 224 228
-6.025290e-001 6.133209e-001 -4.528626e+000 170 104 126
1.451095e-002 7.848119e-001 -5.451672e+000 175 25 37
-6.842937e-001 6.734588e-001 -4.507510e+000 233 177 193
5.070383e-001 8.339919e-001 -5.516670e+000 127 24 35
-9.799345e-001 7.274292e-001 -4.512149e+000 229 167 180
4.358467e-001 1.102559e+000 -5.498647e+000 155 24 37
1.202036e+000 1.072011e+000 -5.146004e+000 184 132 143
1.494594e+000 1.527007e+000 -5.470474e+000 98 65 48
2.758591e+000 -3.136090e+000 -9.553824e+000 52 45 57
2.387473e+000 -3.418809e+000 -1.063986e+001 105 97 118
2.773470e+000 -2.996113e+000 -9.544242e+000 118 111 128
2.123759e+000 -3.523962e+000 -1.135800e+001 85 77 96
2.071374e+000 -3.476827e+000 -1.153839e+001 39 35 49
2.734096e+000 -2.764179e+000 -9.611410e+000 57 41 47
2.734096e+000 -2.764179e+000 -9.611410e+000 57 41 47
2.357610e+000 -2.895756e+000 -1.078031e+001 57 46 55
1.599533e+000 -3.484520e+000 -1.299778e+001 88 85 103
2.393778e+000 -2.127847e+000 -8.106016e+000 187 177 143
1.661407e+000 -3.101340e+000 -1.277877e+001 54 48 60
2.249058e+000 -2.001806e+000 -8.399344e+000 113 98 80
2.070998e+000 -2.417474e+000 -1.154616e+001 63 47 56
1.924996e+000 -2.259648e+000 -1.199223e+001 61 47 49
1.764893e+000 -2.160146e+000 -1.240937e+001 62 47 49
2.135061e+000 -8.412826e-001 -6.195019e+000 214 191 78
2.090367e+000 -8.486447e-001 -6.253324e+000 216 192 86
2.431755e+000 -6.122928e-001 -5.406826e+000 221 70 104
2.434624e+000 -5.328251e-001 -5.382572e+000 240 180 193
2.001357e+000 -5.433176e-001 -6.433897e+000 228 191 78
2.186269e+000 -4.598451e-001 -6.055596e+000 229 196 57
2.186269e+000 -4.598451e-001 -6.055596e+000 229 196 57
2.136538e+000 -3.499966e-001 -6.105951e+000 98 62 2
2.111728e+000 -3.121252e-001 -6.111063e+000 121 76 14
2.474573e+000 -2.478136e-001 -5.286512e+000 240 192 195
-4.860576e-001 3.003739e-002 -4.654358e+000 218 170 181
-4.216875e-001 1.963513e-001 -4.603980e+000 225 164 172
2.081720e+000 2.772550e-001 -6.303350e+000 176 139 48
-3.285018e-001 4.664425e-001 -4.669547e+000 220 191 199
-9.779130e-001 4.830078e-001 -4.562216e+000 173 160 196
3.821400e-001 6.317045e-001 -5.348092e+000 243 214 219
1.707763e-001 6.804184e-001 -5.376993e+000 71 6 13
-9.261198e-001 6.181243e-001 -4.529983e+000 242 226 244
-8.517691e-001 7.012645e-001 -4.498973e+000 228 165 173
-9.045491e-001 7.836982e-001 -4.513661e+000 157 100 122
1.071070e-001 1.452973e+000 -5.784237e+000 108 2 1
-3.862923e+000 4.028429e+000 -1.182282e+001 147 93 86
2.154455e+000 -3.957136e+000 -1.130830e+001 51 45 59
2.195684e+000 -3.901747e+000 -1.119313e+001 89 87 105
9.299426e-001 -5.162738e+000 -1.483917e+001 49 48 57
2.521313e+000 -3.544337e+000 -1.031581e+001 111 107 131
2.184484e+000 -3.782962e+000 -1.114938e+001 88 85 102
2.635169e+000 -3.359982e+000 -9.988047e+000 59 54 71
2.338774e+000 -3.501734e+000 -1.085654e+001 99 95 118
2.262812e+000 -3.510956e+000 -1.099400e+001 56 46 58
2.550337e+000 -3.251231e+000 -1.021221e+001 63 47 57
2.314372e+000 -3.297728e+000 -1.078442e+001 53 46 61
2.468641e+000 -3.163671e+000 -1.040568e+001 68 58 74
2.107167e+000 -3.432155e+000 -1.146092e+001 88 81 97
1.586450e+000 -3.891989e+000 -1.303477e+001 36 26 32
2.458370e+000 -3.092332e+000 -1.047195e+001 101 93 110
1.931565e+000 -3.519478e+000 -1.200157e+001 52 47 68
1.931565e+000 -3.519478e+000 -1.200157e+001 52 47 68
2.606684e+000 -2.826495e+000 -9.954453e+000 46 34 46
2.052332e+000 -3.299979e+000 -1.169822e+001 90 78 86
2.052332e+000 -3.299979e+000 -1.169822e+001 90 78 86
1.933543e+000 -3.169612e+000 -1.195222e+001 57 49 60
1.932189e+000 -3.087917e+000 -1.191021e+001 89 85 99
1.932189e+000 -3.087917e+000 -1.191021e+001 89 85 99
2.001329e+000 -2.905908e+000 -1.175068e+001 66 59 74
2.001329e+000 -2.905908e+000 -1.175068e+001 66 59 74
2.448261e+000 -2.554414e+000 -1.041383e+001 106 99 115
2.448261e+000 -2.554414e+000 -1.041383e+001 106 99 115
2.362695e+000 -2.581366e+000 -1.063077e+001 64 53 67
2.362695e+000 -2.581366e+000 -1.063077e+001 64 53 67
1.226976e+000 -3.071190e+000 -1.413693e+001 74 67 78
2.261372e+000 -1.113880e+000 -5.817672e+000 197 196 106
2.290717e+000 -2.055604e+000 -1.088380e+001 71 60 79
2.147603e+000 -2.037068e+000 -1.112826e+001 91 79 87
2.147603e+000 -2.037068e+000 -1.112826e+001 91 79 87
1.984896e+000 -2.057377e+000 -1.169415e+001 62 50 55
2.442222e+000 -6.741496e-001 -5.305873e+000 247 138 75
2.476912e+000 -3.021756e-001 -5.254952e+000 234 190 210
2.483888e+000 -2.097577e-001 -5.279560e+000 237 193 207
-4.689865e-001 2.425515e-001 -4.573384e+000 216 162 175
-7.377252e-001 4.618506e-001 -4.552235e+000 181 161 192
1.363035e-002 5.646401e-001 -5.329179e+000 194 171 186
-9.321553e-001 5.073357e-001 -4.535663e+000 147 197 227
8.808813e-002 5.779652e-001 -5.328061e+000 239 225 235
-8.051783e-001 6.299457e-001 -4.526546e+000 235 199 216
5.292602e-001 8.455845e-001 -5.477017e+000 204 160 177
-7.056165e-001 7.254458e-001 -4.507623e+000 146 87 107
3.854675e-001 9.180999e-001 -5.497795e+000 203 132 150
-8.075578e-001 8.002181e-001 -4.517983e+000 216 161 173
3.959727e-001 1.064017e+000 -5.515801e+000 229 192 212
-3.857989e+000 3.562392e+000 -1.178128e+001 144 79 71
-5.263302e+000 3.624721e+000 -1.147064e+001 128 72 58
-5.263302e+000 3.624721e+000 -1.147064e+001 128 72 58
-5.413765e+000 3.613478e+000 -1.139227e+001 126 72 64
-5.413765e+000 3.613478e+000 -1.139227e+001 126 72 64
-3.262492e+000 3.736720e+000 -1.191241e+001 142 89 80
-3.262492e+000 3.736720e+000 -1.191241e+001 142 89 80
-4.835152e+000 3.813475e+000 -1.153288e+001 134 72 65
-4.781409e+000 3.893247e+000 -1.147923e+001 135 75 58
-3.453896e+000 4.017184e+000 -1.188915e+001 143 85 86
6.504175e-001 2.711242e-001 -5.457498e+000 210 33 57
6.504175e-001 2.711242e-001 -5.457498e+000 210 33 57
-7.533765e-001 5.582800e-001 -4.533975e+000 161 183 219
2.090667e+000 1.070483e+000 -5.867414e+000 212 176 116
7.540697e-001 7.578445e-002 -5.639639e+000 238 231 239
8.978234e-001 6.092060e-001 -5.462299e+000 147 17 25
-3.195875e+000 3.846517e+000 -1.476573e+001 28 25 33
-3.033392e+000 4.180793e+000 -1.693230e+001 96 85 103
2.447022e+000 1.760844e+000 -5.162256e+000 173 157 104
1.863722e+000 -1.017290e+000 -6.682725e+000 203 178 60
8.834281e-001 -7.027982e-002 -5.540985e+000 51 9 18
2.800369e-001 1.319947e-001 -5.535893e+000 203 42 84
6.425730e-001 1.916488e-001 -5.596417e+000 115 4 13
-5.484604e-001 3.993429e-001 -4.568073e+000 212 160 172
-7.588969e-001 5.094669e-001 -4.529515e+000 188 226 254
-8.907620e-001 6.423778e-001 -4.537232e+000 243 231 243
2.002038e+000 -2.300959e+000 -1.175164e+001 104 96 105
1.791047e+000 -1.790731e+000 -1.233452e+001 75 54 61
-8.250330e-001 -1.471061e-001 -4.980920e+000 251 253 255
8.214506e-001 8.626836e-003 -5.610941e+000 222 196 212
1.054488e+000 5.839388e-001 -5.408520e+000 102 6 13
-9.585392e-001 7.039393e-001 -4.499698e+000 173 111 132
5.500259e-001 9.258032e-001 -5.519331e+000 153 14 28
-7.429140e-001 9.134973e-001 -4.566337e+000 157 123 142
9.757615e-001 1.553756e+000 -5.663674e+000 140 25 36
2.878393e+000 -3.167555e+000 -9.227058e+000 123 117 137
2.878393e+000 -3.167555e+000 -9.227058e+000 123 117 137
2.662482e+000 -3.296993e+000 -9.891711e+000 117 111 132
2.243434e+000 -3.038051e+000 -1.105264e+001 108 101 118
2.506708e+000 -2.610875e+000 -1.020793e+001 67 55 65
2.506708e+000 -2.610875e+000 -1.020793e+001 67 55 65
2.283744e+000 -2.380644e+000 -1.097598e+001 73 53 61
2.069901e+000 -9.208959e-001 -6.259679e+000 211 187 86
2.132682e+000 -7.105550e-001 -6.157290e+000 162 136 39
2.095333e+000 -6.780524e-001 -6.230533e+000 164 169 118
2.174810e+000 -4.872465e-001 -6.044133e+000 225 194 63
2.175167e+000 -4.868557e-001 -6.047273e+000 225 194 63
1.379376e+000 2.008568e-001 -5.483830e+000 75 11 12
-4.746662e-001 2.618461e-001 -4.550672e+000 226 174 184
-7.977648e-001 3.886686e-001 -4.579969e+000 245 237 249
2.438520e+000 -3.478398e+000 -1.047632e+001 51 47 63
2.910066e+000 -2.999647e+000 -9.140391e+000 104 99 117
2.853578e+000 -3.005716e+000 -9.303576e+000 115 100 121
2.721006e+000 -3.099351e+000 -9.667961e+000 32 30 45
2.581278e+000 -3.180540e+000 -1.016664e+001 115 109 126
2.306013e+000 -3.297974e+000 -1.092029e+001 113 109 127
2.356128e+000 -2.822762e+000 -1.072925e+001 116 108 123
2.472561e+000 -2.458895e+000 -1.025673e+001 112 104 121
2.026912e+000 -2.022081e+000 -1.162059e+001 107 91 101
2.026912e+000 -2.022081e+000 -1.162059e+001 107 91 101
2.430256e+000 -5.628131e-001 -5.351307e+000 208 105 132
2.430256e+000 -5.628131e-001 -5.351307e+000 208 105 132
2.439142e+000 -5.160220e-001 -5.341748e+000 209 98 134
2.454611e+000 -4.414894e-001 -5.331985e+000 208 95 122
2.196998e+000 -4.453243e-001 -5.997024e+000 167 135 16
2.221894e+000 -3.657369e-002 -5.940576e+000 167 136 16
2.221894e+000 -3.657369e-002 -5.940576e+000 167 136 16
8.856712e-001 2.880310e-002 -5.561253e+000 223 194 208
2.409107e+000 6.606297e-002 -5.427639e+000 184 158 92
2.078671e-001 6.487078e-001 -5.334202e+000 187 156 176
-6.747591e-001 8.914599e-001 -4.577199e+000 132 93 111
-2.429906e+000 3.174720e+000 -1.191004e+001 91 86 95
-2.429906e+000 3.174720e+000 -1.191004e+001 91 86 95
2.047206e+000 4.837030e-001 -6.253085e+000 149 88 70
-4.218844e-001 -2.683772e-001 -5.263278e+000 158 131 133
5.028407e-001 1.274475e+000 -5.682748e+000 18 7 6
-2.448084e+000 1.763691e+000 -1.227752e+001 124 104 114
1.829653e+000 -1.104234e+000 -6.677498e+000 217 202 91
-4.415643e-001 -1.244972e-001 -4.958925e+000 248 206 217
1.301234e+000 1.156758e-001 -5.394758e+000 131 25 22
-8.603008e-001 2.143961e-001 -4.587016e+000 223 160 169
2.519369e-001 7.986390e-001 -5.468095e+000 231 42 72
1.390090e+000 1.266602e+000 -5.222512e+000 201 144 155
1.118304e+000 5.864679e-002 -5.378229e+000 134 59 62
9.545427e-001 5.887240e-002 -5.462459e+000 74 10 10
7.504004e-001 -2.248083e+000 -1.223356e+001 150 127 126
2.464743e+000 -5.381576e-001 -5.295974e+000 255 62 100
-7.325464e-001 3.148522e-001 -4.568926e+000 217 151 166
1.861618e+000 -1.033110e+000 -6.679084e+000 234 210 88
2.149940e+000 -6.188966e-001 -6.079746e+000 243 216 79
2.183929e+000 -5.180512e-001 -6.001499e+000 188 157 33
2.183929e+000 -5.180512e-001 -6.001499e+000 188 157 33
1.186789e+000 -3.194686e-001 -5.270828e+000 195 133 135
-9.883931e-001 2.776292e-001 -4.642035e+000 233 171 185
-4.815460e-001 3.489665e-001 -4.555144e+000 187 125 131
-5.177107e-001 4.139871e-001 -4.563200e+000 149 90 108
-8.546497e-001 7.883785e-001 -4.515525e+000 184 119 134
2.091465e+000 -8.109908e-001 -6.227372e+000 240 219 94
2.069530e+000 -8.173340e-001 -6.270367e+000 185 193 135
2.075069e+000 -8.197209e-001 -6.282557e+000 185 193 135
2.156559e+000 -7.307432e-001 -6.094040e+000 197 169 49
-8.668361e-001 2.515749e-001 -4.617224e+000 255 216 220
2.567496e+000 -3.024933e+000 -1.011461e+001 140 131 150
2.487433e+000 -2.662371e+000 -1.028124e+001 128 115 128
2.337199e+000 -2.786724e+000 -1.077091e+001 80 68 82
2.280470e+000 -2.777679e+000 -1.085608e+001 84 72 87
-1.275855e+000 -2.873751e+000 -1.310661e+001 85 46 56
2.137596e+000 -8.578461e-001 -6.132211e+000 200 173 44
2.099793e+000 -8.425703e-001 -6.194431e+000 196 170 45
1.931242e+000 -2.120647e+000 -1.189156e+001 74 49 49
2.173650e+000 -3.636895e-001 -6.040393e+000 206 172 32
-6.926320e-001 -1.789853e-001 -4.970454e+000 250 240 251
-9.127271e-001 -1.919282e-001 -4.990214e+000 155 201 235
-9.203279e-001 -1.464328e-001 -4.944919e+000 119 141 190
1.197544e+000 -9.479801e-002 -5.277005e+000 236 173 181
-4.529827e-001 -1.351884e-002 -4.718924e+000 255 209 215
8.788382e-001 1.339365e-001 -5.630940e+000 150 41 66
-6.591351e-001 3.873552e-001 -4.572338e+000 202 131 146
3.342865e-001 6.237735e-001 -5.315106e+000 153 104 124
3.485510e-001 6.475184e-001 -5.326217e+000 247 224 229
-1.025361e+000 8.021495e-001 -4.555652e+000 249 196 203
8.795020e-001 4.969248e-001 -5.413242e+000 215 196 204
1.875645e+000 -3.266533e+000 -1.224753e+001 53 44 53
2.517857e+000 -3.541242e+000 -1.030590e+001 111 107 131
2.264323e+000 -3.512752e+000 -1.099601e+001 56 46 58
5.215351e-001 1.054464e+000 -5.529319e+000 142 34 59
4.835502e-001 1.062365e+000 -5.522780e+000 140 30 54
1.331856e-001 8.820233e-001 -5.500895e+000 238 44 79
1.639941e+000 2.858424e+000 -7.254552e+000 141 135 154
-1.905229e+000 2.053769e+000 -1.159337e+001 121 100 115
-3.316689e-002 7.508997e-001 -5.412606e+000 107 3 7
-2.840906e+000 1.100415e+000 -1.253070e+001 116 95 104
1.280591e+000 1.011969e+000 -5.769928e+000 215 42 64
5.106479e-002 1.265594e+000 -5.702253e+000 181 26 39
1.240901e-001 5.623433e-001 -5.323630e+000 104 39 63
8.306204e-001 6.892838e-001 -5.507550e+000 234 44 79
4.106957e-001 8.599097e-001 -5.487178e+000 181 35 56
5.640123e-001 1.066969e+000 -5.525926e+000 188 28 41
6.028225e-001 1.645652e+000 -5.795049e+000 96 5 3
2.595453e+000 -3.383192e+000 -1.009385e+001 128 117 138
1.088007e+000 -2.915659e-001 -5.285193e+000 244 181 189
1.865487e-001 5.442109e-001 -5.329355e+000 150 99 104
1.495704e+000 1.232371e+000 -5.220140e+000 185 130 132
1.367959e-001 1.209870e+000 -5.575354e+000 116 3 7
5.083324e-001 1.367715e+000 -5.756303e+000 179 29 36
-3.253856e-001 1.751253e+000 -9.498748e+000 6 6 4
6.474206e-001 1.632892e+000 -5.765027e+000 211 40 57
1.321800e+000 2.489266e+000 -7.918349e+000 19 14 17
1.614928e+000 -4.683149e+000 -1.310939e+001 92 88 103
2.050871e+000 -3.989642e+000 -1.170182e+001 117 113 130
2.006786e+000 -3.325418e+000 -1.178734e+001 74 62 78
2.006786e+000 -3.325418e+000 -1.178734e+001 74 62 78
2.153213e+000 -5.664258e-001 -6.078765e+000 246 219 83
-4.996200e-001 3.295119e-001 -4.548956e+000 247 197 208
4.519644e-001 8.498583e-001 -5.506038e+000 231 195 215
-3.228097e-001 1.693425e+000 -9.523850e+000 72 59 60
-6.164548e-001 1.758977e+000 -1.009508e+001 14 12 15
1.615937e+000 2.380572e+000 -7.369548e+000 114 95 81
2.584402e+000 -3.427784e+000 -1.016626e+001 124 118 149
2.825599e+000 -3.071289e+000 -9.390532e+000 142 138 159
1.766044e+000 -4.329781e+000 -1.262634e+001 107 103 120
2.264317e+000 -3.267521e+000 -1.101536e+001 116 110 129
1.805692e+000 -3.215982e+000 -1.238270e+001 110 102 119
-8.842069e-001 3.164948e-001 -4.593824e+000 229 166 184
-5.186491e-001 4.423669e-001 -4.591642e+000 196 138 152
-6.591298e-001 6.817413e-001 -4.506106e+000 198 130 142
-9.227211e-001 7.208666e-001 -4.491379e+000 195 122 141
-7.414609e-001 7.415152e-001 -4.494700e+000 218 164 175
4.419413e-001 9.058855e-001 -5.502077e+000 234 151 171
5.705632e-001 1.047379e+000 -5.528993e+000 159 29 51
3.931990e-001 1.036370e+000 -5.511551e+000 243 209 229
4.351551e-001 1.050185e+000 -5.516573e+000 225 203 227
1.201454e-001 1.596707e+000 -5.809696e+000 127 2 0
2.468149e+000 -2.802422e-001 -5.263671e+000 227 157 174
2.471040e+000 -2.810794e-001 -5.270277e+000 227 157 174
2.541875e+000 -2.238551e-001 -5.426851e+000 217 37 44
2.492143e+000 -3.327052e-001 -5.226544e+000 213 37 57
2.502171e+000 -2.533623e-001 -5.200784e+000 215 38 58
2.480217e+000 -1.977254e-001 -5.236335e+000 221 180 190
2.460850e+000 -5.941249e-002 -5.256687e+000 214 39 52
2.511723e+000 1.173745e-001 -5.130549e+000 220 188 205
2.522725e+000 -2.033505e-001 -5.120105e+000 210 98 45
-3.105075e+000 -4.936257e-001 -1.496282e+001 103 100 125
-6.884702e-001 6.739186e-001 -4.499071e+000 220 166 180
2.765937e+000 -3.008362e+000 -9.633260e+000 87 79 92
2.108713e+000 -9.929784e-001 -6.174288e+000 175 148 39
2.134314e+000 -6.452349e-001 -6.149792e+000 162 134 36
2.169666e+000 -5.248193e-001 -6.058496e+000 213 182 65
2.508987e+000 -3.340250e-001 -5.149876e+000 218 37 51
-3.123509e+000 -5.242887e-001 -1.513664e+001 105 101 122
2.134507e+000 5.220553e-001 -6.169828e+000 135 83 24
-2.273316e+000 4.539418e-001 -1.225388e+001 30 22 27
-2.273316e+000 4.539418e-001 -1.225388e+001 30 22 27
4.080317e-001 1.118661e+000 -5.522044e+000 205 168 181
4.080317e-001 1.118661e+000 -5.522044e+000 205 168 181
9.628846e-001 1.601716e+000 -5.636692e+000 144 21 29
2.677334e+000 -3.525661e+000 -9.850406e+000 56 54 64
2.148652e+000 -7.776120e-001 -6.103847e+000 159 131 35
2.148652e+000 -7.776120e-001 -6.103847e+000 159 131 35
2.190631e+000 -4.843324e-001 -6.005968e+000 172 142 32
2.498110e+000 -8.159681e-002 -5.174821e+000 221 186 200
2.500738e+000 -3.649471e-002 -5.155087e+000 228 178 201
2.477194e+000 -8.216994e-003 -5.227698e+000 229 167 175
2.477194e+000 -8.216994e-003 -5.227698e+000 229 167 175
2.515604e+000 1.505673e-001 -5.112401e+000 208 42 65
2.528954e+000 2.447887e-001 -5.088443e+000 190 71 99
2.528954e+000 2.447887e-001 -5.088443e+000 190 71 99
-8.835358e-001 2.939807e-001 -4.595096e+000 230 170 184
-1.896001e+000 6.140336e-001 -1.166800e+001 39 29 37
-1.896001e+000 6.140336e-001 -1.166800e+001 39 29 37
-7.375850e-001 4.612018e-001 -4.547126e+000 166 140 175
-1.056139e+000 6.436800e-001 -4.519988e+000 177 111 130
3.554810e-001 9.034274e-001 -5.487692e+000 147 25 40
3.832276e-001 9.168874e-001 -5.492998e+000 183 112 129
5.550065e-001 9.949383e-001 -5.520035e+000 132 8 22
2.756890e+000 -2.925171e+000 -9.535244e+000 41 31 41
2.107205e+000 -9.026956e-001 -6.192324e+000 205 177 65
2.477408e+000 -3.006619e-001 -5.248733e+000 234 185 202
2.471039e+000 -2.075733e-001 -5.256104e+000 230 182 190
2.493386e+000 -5.415735e-002 -5.187425e+000 190 82 110
2.493386e+000 -5.415735e-002 -5.187425e+000 190 82 110
2.526382e+000 1.687776e-001 -5.082871e+000 250 156 168
2.526382e+000 1.687776e-001 -5.082871e+000 250 156 168
2.508098e+000 3.411168e-002 -5.165627e+000 231 165 179
2.508098e+000 3.411168e-002 -5.165627e+000 231 165 179
2.482066e+000 -1.965560e-001 -5.238301e+000 221 180 190
2.515179e+000 -2.496499e-002 -5.124447e+000 207 46 66
2.476415e+000 -1.190504e-001 -5.242830e+000 228 185 199
2.332885e+000 -5.684468e-001 -5.632303e+000 164 134 16
2.185502e+000 -5.547532e-001 -6.030328e+000 154 125 24
2.471766e+000 -3.570775e-001 -5.273066e+000 229 182 199
2.193230e+000 -2.460096e-001 -6.004643e+000 164 134 26
2.318630e+000 -7.144253e-001 -5.693977e+000 159 131 23
2.427656e+000 -5.024657e-001 -5.382583e+000 206 64 74
2.373193e+000 -2.629485e-001 -5.537066e+000 175 143 24
2.489193e+000 -1.061931e-001 -5.206885e+000 194 79 112
2.485705e+000 9.617990e-003 -5.201178e+000 199 76 92
2.523109e+000 1.254215e-001 -5.098933e+000 233 168 187
2.485385e+000 1.936331e-001 -5.153406e+000 255 59 95
2.515328e+000 -1.314619e-002 -5.197988e+000 226 168 192
2.585439e+000 3.522008e-001 -4.920706e+000 250 146 73
2.549457e+000 1.866773e-001 -5.046309e+000 255 63 106
2.527245e+000 1.132343e-001 -5.059386e+000 255 65 107
-7.429430e-001 1.042319e+000 -1.001751e+001 67 52 60
2.450274e+000 1.188773e+000 -4.754045e+000 252 200 98
2.535716e+000 2.546793e-001 -5.058002e+000 255 198 213
2.519460e+000 1.900918e-001 -5.098676e+000 247 69 109
1.852328e+000 -1.059632e+000 -6.740945e+000 43 25 2
2.082101e+000 -6.112462e-001 -6.363104e+000 225 194 65
-2.095246e+000 6.114865e+000 -1.034260e+001 144 134 154
-2.095246e+000 6.114865e+000 -1.034260e+001 144 134 154
3.789755e-001 2.695863e-002 -5.843672e+000 76 0 0
-8.374470e-001 -2.797331e-001 -5.001698e+000 18 22 29
2.523520e+000 1.704618e+000 -4.910204e+000 140 115 13
1.231443e+000 2.182773e-001 -8.227164e+000 14 12 13
1.883256e+000 -8.593010e-001 -6.690854e+000 214 186 52
-8.808774e-001 -3.240387e-001 -5.084394e+000 180 210 246
1.284414e+000 -5.262745e-002 -8.264408e+000 148 144 164
1.838482e+000 -6.541399e-001 -6.890862e+000 205 179 50
1.551583e+000 -9.031004e-002 -7.632856e+000 163 141 40
-1.905530e+000 3.687559e+000 -1.088984e+001 20 17 19
-8.199914e-001 6.218855e+000 -1.049743e+001 100 93 109
-1.891273e+000 6.165452e+000 -1.016800e+001 14 83 114
-4.054237e-001 9.429759e+000 -1.162673e+001 104 80 99
-9.843543e-001 9.163429e+000 -1.125571e+001 107 58 72
2.448345e+000 3.409370e-002 -5.197860e+000 244 50 76
2.583950e+000 4.897178e-001 -5.026716e+000 197 96 122
9.924937e-001 2.674109e-001 -8.784525e+000 142 135 156
1.553309e+000 -4.190762e-001 -7.519357e+000 192 169 53
1.514334e+000 -2.764532e-001 -7.655421e+000 182 161 43
1.505468e+000 -1.452698e-001 -7.696424e+000 124 108 55
1.875353e+000 -1.008877e+000 -6.712435e+000 209 182 55
-2.076509e+000 5.855689e+000 -1.105151e+001 0 55 99
-7.370839e-001 -1.910678e-001 -4.869737e+000 233 173 180
4.938237e-003 9.026679e+000 -1.175242e+001 89 73 85
4.938237e-003 9.026679e+000 -1.175242e+001 89 73 85
2.496389e+000 -1.853573e-001 -5.167411e+000 239 48 75
-1.043224e-002 9.295844e+000 -1.164624e+001 115 72 91
2.626388e+000 4.355965e-001 -4.831233e+000 237 47 65
9.780780e-001 1.396158e-001 -8.822532e+000 155 151 173
1.202911e+000 1.340285e-002 -8.373976e+000 19 14 17
-3.531540e-001 1.304714e+000 -9.541162e+000 114 93 104
1.531211e+000 -2.053044e-001 -7.659573e+000 175 152 50
-9.551184e-001 -4.063858e-001 -5.259078e+000 139 96 115
-2.160604e+000 5.990002e+000 -1.049573e+001 30 84 110
2.225282e+000 -6.074659e-002 -5.933082e+000 187 154 44
2.228186e+000 -5.719190e-002 -5.937634e+000 187 154 44
-1.068223e+000 6.137478e+000 -1.059779e+001 79 60 64
-2.087252e+000 6.078166e+000 -1.029896e+001 146 135 156
-2.210293e+000 6.113029e+000 -1.016196e+001 24 87 121
-1.123872e+000 6.188094e+000 -1.035745e+001 99 92 111
-1.123206e+000 6.200397e+000 -1.036799e+001 99 92 111
-8.840968e-001 -2.428679e-001 -4.967685e+000 21 33 77
-7.787419e-001 -2.129522e-001 -4.937435e+000 170 224 254
-5.996928e-001 -2.055366e-001 -4.840731e+000 227 176 187
2.500632e+000 1.124537e-001 -5.131546e+000 236 202 216
2.454750e+000 1.744709e+000 -5.093178e+000 148 125 76
8.468094e-001 3.411823e-001 -9.160029e+000 165 148 162
9.017501e-001 3.611703e-001 -9.044193e+000 152 140 157
1.187065e+000 -7.271798e-002 -8.416944e+000 19 16 22
8.728365e-001 6.425088e-001 -8.999782e+000 131 122 141
8.728365e-001 6.425088e-001 -8.999782e+000 131 122 141
9.072446e-001 6.258463e-001 -8.953981e+000 129 121 134
1.649684e+000 -4.347322e-001 -7.330188e+000 196 174 54
1.725302e+000 -6.042816e-001 -7.126588e+000 151 121 101
1.673752e+000 -2.884769e-001 -7.294058e+000 196 174 51
2.102458e+000 -9.972201e-001 -6.168690e+000 181 152 32
2.115059e+000 -7.906144e-001 -6.194071e+000 164 134 20
2.122448e+000 -6.056014e-001 -6.149566e+000 233 197 67
-2.288103e+000 6.017596e+000 -1.041319e+001 20 77 100
-2.263369e+000 6.060509e+000 -1.028039e+001 29 87 115
-9.423701e-001 6.211734e+000 -1.051231e+001 9 37 76
-2.140648e+000 6.094287e+000 -1.020317e+001 12 56 66
-1.826101e+000 6.125424e+000 -1.026656e+001 6 22 29
-2.024841e+000 6.113123e+000 -1.020734e+001 0 33 53
-1.526549e+000 6.165194e+000 -1.030849e+001 123 110 132
-6.768956e-001 -2.276659e-001 -4.938105e+000 200 140 153
-6.259058e-001 -2.001781e-001 -4.886985e+000 131 82 103
-5.623848e-001 -2.089131e-001 -4.856614e+000 144 87 100
2.469620e+000 -1.232475e-001 -5.240247e+000 240 208 219
-6.322303e-002 9.086355e+000 -1.167237e+001 36 43 73
-1.071188e+000 3.014149e-001 -4.656809e+000 248 187 198
4.233935e+000 1.725651e+000 -5.176431e+000 114 91 108
2.493382e+000 1.755342e+000 -4.955529e+000 211 182 62
8.391644e-001 2.792204e-001 -9.132251e+000 167 143 158
1.012357e+000 8.676269e-002 -8.809928e+000 98 90 110
1.052495e+000 2.522417e-001 -8.723388e+000 137 134 150
8.157478e-001 6.189493e-001 -9.142466e+000 124 20 32
9.874615e-001 5.285242e-001 -8.778532e+000 54 50 67
9.957315e-001 5.402012e-001 -8.796528e+000 54 50 67
1.089435e+000 3.787799e-001 -8.601273e+000 65 63 77
9.250220e-001 6.832231e-001 -8.931109e+000 127 108 122
9.250220e-001 6.832231e-001 -8.931109e+000 127 108 122
1.471468e+000 -2.899780e-001 -7.753121e+000 182 161 54
9.302880e-001 7.530919e-001 -8.888513e+000 119 92 99
9.964649e-001 6.752209e-001 -8.775549e+000 51 45 51
9.780090e-001 7.194769e-001 -8.787588e+000 98 84 98
1.073893e+000 6.904848e-001 -8.623022e+000 36 30 37
1.634779e+000 -4.023670e-001 -7.367817e+000 134 99 34
1.630466e+000 -3.502599e-001 -7.394729e+000 176 139 59
1.654889e+000 -2.049615e-001 -7.352583e+000 165 144 50
1.534350e+000 9.051273e-002 -7.616648e+000 16 15 10
2.104222e+000 -8.465457e-001 -6.204814e+000 178 147 28
2.104222e+000 -8.465457e-001 -6.204814e+000 178 147 28
2.174546e+000 -6.515682e-001 -6.066227e+000 168 139 24
2.150976e+000 -5.902615e-001 -6.123965e+000 184 154 41
2.186626e+000 -5.547055e-001 -6.027790e+000 178 147 29
-8.425474e-001 -3.471670e-001 -5.098196e+000 242 236 249
-1.750562e+000 6.110300e+000 -1.027525e+001 12 65 98
-1.750562e+000 6.110300e+000 -1.027525e+001 12 65 98
-7.113108e-002 2.619334e-001 -5.467266e+000 200 164 176
2.501334e+000 -3.868683e-002 -5.159216e+000 250 193 220
-1.007126e+000 -2.870948e-002 -4.796582e+000 184 117 135
-1.099712e+000 3.065221e-001 -4.667814e+000 214 142 155
4.211786e+000 1.497742e+000 -5.278512e+000 108 84 99
8.600967e-001 5.099639e-001 -9.081286e+000 164 132 147
1.197791e+000 9.236841e-002 -8.366868e+000 28 24 36
1.065782e+000 3.613974e-001 -8.658842e+000 116 112 125
1.212066e+000 1.509017e-001 -8.340241e+000 19 14 21
1.079307e+000 4.608568e-001 -8.634764e+000 97 94 107
1.655587e+000 -4.829614e-001 -7.303675e+000 162 133 28
8.712183e-001 1.044382e+000 -8.956800e+000 57 12 12
1.904261e+000 -9.817158e-001 -6.646524e+000 57 26 0
-3.369308e-001 6.174822e+000 -1.077268e+001 16 14 28
-2.054997e+000 6.122211e+000 -1.010754e+001 1 32 47
-7.285331e-001 -2.347660e-001 -4.977787e+000 164 184 222
2.606876e+000 1.439582e+000 -4.931517e+000 216 191 135
1.594827e+000 -4.026727e-001 -7.419959e+000 143 102 62
-7.501394e-001 -2.335183e-001 -4.954010e+000 185 218 249
1.012988e+000 5.331468e-001 -8.675061e+000 101 95 112
1.280863e+000 3.297747e-001 -8.192217e+000 10 10 8
-3.979623e-002 1.119999e+001 -1.178888e+001 7 8 7
9.791672e-001 6.491039e-001 -8.812889e+000 106 98 116
2.113698e+000 -7.911361e-001 -6.193868e+000 164 134 20
-1.302566e+000 6.185045e+000 -1.043551e+001 5 15 53
-7.118350e-001 -2.177695e-001 -4.959141e+000 238 219 239
2.481989e+000 1.637895e+000 -4.976550e+000 215 184 67
4.259706e+000 2.027420e+000 -4.870037e+000 155 144 166
1.203722e+000 2.139833e-001 -8.363340e+000 86 80 88
1.065428e+000 5.829048e-001 -8.644290e+000 36 28 38
9.155909e-001 -5.428205e-001 -5.486107e+000 179 101 101
-1.647300e+000 1.104077e+001 -1.114192e+001 92 36 68
1.212390e+000 1.507993e-001 -8.338236e+000 19 14 21
-2.937028e+000 5.794798e+000 -1.115897e+001 34 34 34
-2.937028e+000 5.794798e+000 -1.115897e+001 34 34 34
-2.866089e+000 5.817329e+000 -1.089633e+001 33 33 33
2.083979e+000 -1.292830e-002 -6.143932e+000 214 176 51
-5.799161e-002 5.600607e-002 -5.899742e+000 160 15 24
1.707722e+000 -3.760128e-001 -7.211865e+000 194 169 50
1.799107e+000 -7.565524e-001 -6.855023e+000 202 175 44
-1.533399e-001 1.983654e-001 -5.741067e+000 25 10 9
1.552883e+000 1.072189e+000 -5.196086e+000 201 141 156
1.546746e+000 -2.059663e-001 -7.452615e+000 116 94 17
1.858841e+000 -7.146912e-001 -6.685198e+000 37 26 11
-2.466282e-001 -9.415938e-002 -5.952933e+000 14 10 9
1.818749e+000 1.895534e-001 -6.323550e+000 56 31 11
-8.377804e-001 -2.503152e-001 -5.010869e+000 21 21 28
1.560179e+000 2.608739e-002 -5.658397e+000 188 122 126
1.574234e+000 -6.907738e-001 -7.596232e+000 155 132 38
1.574234e+000 -6.907738e-001 -7.596232e+000 155 132 38
-6.851930e-001 4.128356e+000 -9.473604e+000 112 108 131
-7.088879e-001 -3.402523e-001 -5.334715e+000 177 129 140
-7.283841e-001 -3.959411e-001 -4.952501e+000 178 192 225
1.317457e+000 1.110670e+000 -5.246387e+000 67 12 5
1.248911e+000 1.053224e+000 -5.076557e+000 183 124 136
1.248911e+000 1.053224e+000 -5.076557e+000 183 124 136
1.793609e+000 -5.094055e-001 -7.010700e+000 180 157 42
1.957561e+000 -7.659952e-001 -6.633899e+000 44 28 12
3.173155e-001 -1.236338e-001 -6.189466e+000 172 25 33
8.635392e-001 -5.382821e-001 -5.951882e+000 151 14 19
-1.616421e-002 2.053620e-001 -5.740600e+000 104 3 5
-2.875612e-001 1.707402e-001 -5.501927e+000 197 179 196
-1.090318e-001 2.722298e-001 -5.552281e+000 239 228 237
-1.914812e-001 2.786644e-001 -5.505492e+000 121 9 14
-9.392490e-001 -2.664313e-001 -4.962765e+000 169 201 240
-1.812053e-001 4.311901e-001 -5.405128e+000 10 10 10
8.882024e-001 4.621113e-001 -5.484854e+000 84 0 0
1.319981e+000 -4.561254e-001 -5.292607e+000 96 45 29
-4.911932e-001 1.542246e-001 -4.482098e+000 97 81 99
2.496180e+000 -1.925331e-001 -5.010923e+000 229 42 65
1.458254e+000 -2.084623e-001 -6.838814e+000 108 65 63
4.071079e-001 -1.337188e-001 -6.026786e+000 207 33 59
4.301284e-002 4.143611e-001 -5.430781e+000 58 17 30
-8.422214e-001 -1.867834e-001 -4.906181e+000 168 182 216
-9.279380e-001 -1.567437e-001 -4.866768e+000 237 174 185
1.029061e+000 5.594999e-001 -5.527084e+000 99 2 1
2.411291e+000 -5.835354e-001 -5.346881e+000 184 109 121
2.411291e+000 -5.835354e-001 -5.346881e+000 184 109 121
-9.070442e-001 2.958165e-001 -4.494939e+000 23 20 33
2.413204e+000 -4.239783e-001 -5.271797e+000 219 159 175
2.413204e+000 -4.239783e-001 -5.271797e+000 219 159 175
1.141728e+000 1.039955e+000 -5.141985e+000 173 123 137
1.141728e+000 1.039955e+000 -5.141985e+000 173 123 137
2.473635e+000 -1.971527e-001 -5.233948e+000 225 166 179
1.736813e+000 -7.954521e-001 -7.292004e+000 144 117 59
1.869761e+000 -8.808454e-001 -6.462131e+000 166 119 116
-8.898403e-001 -4.029621e-001 -5.270654e+000 71 33 45
2.090758e+000 -5.454291e-001 -6.255062e+000 216 185 54
-8.995337e-001 -4.033535e-001 -5.216165e+000 182 132 146
-7.566171e-001 -3.767875e-001 -5.269864e+000 88 42 52
-7.432186e-001 -3.508922e-001 -5.148007e+000 231 170 179
2.167386e+000 7.075825e-001 -6.196424e+000 192 150 60
-4.088544e-001 -1.298113e-001 -5.048966e+000 156 108 117
7.556599e-001 5.049265e-001 -5.558909e+000 213 37 58
2.456376e+000 -4.771064e-001 -5.259132e+000 228 45 68
-9.144025e-001 3.839870e-001 -4.452260e+000 216 151 163
1.396884e+000 1.007790e+000 -5.243712e+000 165 100 110
2.439981e+000 -4.017166e-001 -5.209413e+000 223 45 71
2.491580e+000 -4.188396e-001 -5.193307e+000 226 124 57
2.570815e+000 4.376784e-001 -4.864599e+000 208 95 40
8.676740e-001 8.926587e-001 -8.961268e+000 81 80 92
-1.051205e-001 2.172866e-001 -5.876479e+000 189 26 40
-1.118112e+000 -3.345785e-001 -5.194872e+000 165 110 129
-9.595087e-001 -3.613285e-001 -5.132987e+000 222 158 172
-9.689360e-001 -3.411817e-001 -5.069753e+000 181 107 126
6.672148e-001 8.635842e-002 -5.669558e+000 98 10 16
-2.098549e-001 3.504186e-001 -5.456233e+000 174 149 164
-1.342613e-001 4.664118e-001 -5.479930e+000 205 186 201
9.973092e-001 -4.436591e-001 -5.537123e+000 97 43 35
-4.741193e-001 -1.785677e-001 -4.982466e+000 69 25 28
-5.544387e-001 -1.990930e-001 -4.943125e+000 75 32 43
-8.281494e-001 -2.047385e-001 -4.851670e+000 130 79 102
-5.068551e-001 -1.449903e-001 -4.740625e+000 175 114 125
1.395593e+000 -2.528804e-001 -5.173370e+000 152 94 98
1.641845e+000 1.245635e-002 -5.277856e+000 159 104 73
2.434976e+000 -5.695386e-001 -5.284273e+000 227 42 71
-4.089268e-001 3.287605e-001 -4.617342e+000 212 165 176
-7.718539e-001 2.645690e-001 -4.491232e+000 204 188 222
2.488127e+000 1.602877e-001 -4.991576e+000 217 49 66
2.515233e+000 1.185895e-001 -4.963661e+000 215 116 49
2.495144e+000 2.715248e-001 -4.942400e+000 221 44 64
1.247489e+000 -5.140028e-002 -8.385726e+000 18 10 22
8.329656e-001 9.891572e-001 -9.004388e+000 58 11 12
9.106332e-001 1.014005e+000 -8.963029e+000 74 62 71
1.217162e+000 2.048936e-001 -8.292204e+000 8 8 10
1.234855e+000 3.226842e-001 -8.284619e+000 6 6 6
1.655364e+000 -8.497666e-002 -7.369984e+000 23 17 6
1.738492e+000 -1.364604e-001 -7.346835e+000 152 131 45
1.749449e+000 -4.841650e-001 -7.083656e+000 165 137 112
1.928387e+000 -1.017120e+000 -6.810037e+000 204 180 51
1.952695e+000 -5.442552e-001 -6.377411e+000 95 47 7
-1.212831e+000 -3.321527e-001 -5.298467e+000 132 101 116
-1.010980e+000 -3.858872e-001 -5.214516e+000 207 155 165
-6.642938e-001 -3.458705e-001 -5.247291e+000 198 149 168
2.148168e+000 -4.550622e-001 -6.179934e+000 76 53 4
-6.582873e-001 -3.240537e-001 -5.210537e+000 109 54 68
-9.925843e-001 -3.185046e-001 -5.030792e+000 185 114 134
-9.925843e-001 -3.185046e-001 -5.030792e+000 185 114 134
-8.730918e-001 -3.528518e-001 -5.041684e+000 160 219 249
2.191897e+000 -3.374515e-001 -6.050089e+000 182 150 40
2.124701e+000 4.845922e-001 -6.139938e+000 151 101 36
-5.568921e-001 -2.172262e-001 -5.008464e+000 143 82 103
1.012780e+000 -4.991549e-001 -5.439172e+000 191 141 148
-7.318999e-001 -2.475230e-001 -4.905786e+000 143 98 124
-1.707941e-001 5.812521e-001 -5.318701e+000 174 30 41
-2.928356e-001 1.460325e-001 -4.720531e+000 192 156 167
2.479921e+000 -5.775934e-001 -5.371245e+000 225 46 72
-8.741946e-001 2.470537e-001 -4.525695e+000 250 246 253
-4.925415e-001 2.502193e-002 -4.583743e+000 237 192 207
-9.585090e-001 4.063739e-001 -4.501946e+000 171 175 210
1.167300e+000 1.320097e+000 -5.235981e+000 70 55 66
9.050616e-001 6.226484e-001 -8.952092e+000 122 107 120
9.705800e-001 5.718147e-001 -8.847229e+000 113 99 106
1.012917e+000 7.414659e-001 -8.757653e+000 32 26 31
1.012917e+000 7.414659e-001 -8.757653e+000 32 26 31
1.478049e+000 -2.756162e-001 -7.766950e+000 170 149 53
1.616114e+000 -3.415010e-001 -7.446503e+000 96 63 21
1.710624e+000 -3.554714e-001 -7.453263e+000 192 169 55
1.677335e+000 -3.959100e-001 -7.304946e+000 152 129 26
1.392161e+000 -3.030885e-001 -6.770155e+000 118 83 86
2.129301e+000 -8.961559e-001 -6.307481e+000 165 132 28
2.123205e+000 -8.676789e-001 -6.251568e+000 173 140 39
2.123205e+000 -8.676789e-001 -6.251568e+000 173 140 39
-1.218284e+000 -3.410714e-001 -5.236566e+000 184 141 157
-1.017984e+000 -4.034775e-001 -5.242830e+000 134 85 103
-9.651656e-001 -3.774408e-001 -5.163201e+000 160 98 112
-9.967062e-001 -3.669955e-001 -5.152474e+000 151 90 106
-9.092061e-001 -4.009412e-001 -5.168054e+000 167 101 120
-7.206846e-001 -3.781050e-001 -5.209330e+000 189 139 152
2.166733e+000 -5.680360e-001 -6.138085e+000 178 148 29
3.411057e-003 2.354433e-001 -5.672666e+000 164 9 21
2.211674e+000 -5.373176e-001 -6.087083e+000 164 130 23
-6.253053e-001 -3.291932e-001 -5.178755e+000 151 89 100
2.004759e+000 2.051233e-001 -6.228049e+000 173 125 110
1.558674e-001 2.929237e-001 -5.580907e+000 179 77 101
-6.796579e-001 -2.129316e-001 -4.998704e+000 211 143 158
-5.271153e-001 -2.368382e-001 -5.034783e+000 134 71 84
9.779261e-001 -5.015662e-001 -5.430489e+000 146 89 103
-7.713270e-002 4.473198e-001 -5.355398e+000 193 155 160
-8.672096e-001 -2.024201e-001 -4.862038e+000 229 167 181
1.098054e+000 -4.947700e-001 -5.346541e+000 198 145 152
-5.538554e-001 -2.063046e-001 -4.889098e+000 188 136 143
-1.023559e+000 -1.027534e-001 -4.753636e+000 182 126 142
-9.158013e-001 -1.075976e-001 -4.710395e+000 132 62 81
-4.793802e-001 -2.478192e-002 -4.647969e+000 144 88 102
3.274143e+000 4.899497e+000 -5.719046e+000 115 100 115
3.245238e+000 4.953207e+000 -5.573936e+000 72 56 67
3.245238e+000 4.953207e+000 -5.573936e+000 72 56 67
3.504288e+000 5.190330e+000 -5.356043e+000 105 91 111
3.504288e+000 5.190330e+000 -5.356043e+000 105 91 111
8.958772e-001 8.493079e-001 -9.011956e+000 103 83 95
1.876423e+000 -8.995867e-001 -6.872159e+000 69 40 0
1.876423e+000 -8.995867e-001 -6.872159e+000 69 40 0
1.915527e+000 -1.084499e+000 -6.775765e+000 73 48 1
1.915527e+000 -1.084499e+000 -6.775765e+000 73 48 1
1.534069e+000 -2.835971e-001 -6.782328e+000 83 46 43
1.294818e+000 -1.482125e-001 -6.522224e+000 93 44 48
-1.062279e+000 -3.862539e-001 -5.232256e+000 121 72 91
-8.008897e-001 -3.931618e-001 -5.290684e+000 103 54 68
2.060690e+000 -4.655402e-001 -6.253520e+000 147 101 69
-8.475583e-001 -3.941802e-001 -5.233330e+000 145 93 110
-1.841785e-001 3.320630e-001 -5.420785e+000 68 40 57
-9.436321e-001 -2.048372e-001 -4.920262e+000 150 107 134
-1.280970e+000 1.019580e-001 -4.825011e+000 190 148 167
2.139952e+000 7.784330e-001 -6.071157e+000 173 112 89
3.077217e-001 4.252786e-001 -5.375791e+000 183 116 127
-4.394958e-001 -1.772226e-001 -4.925871e+000 207 156 165
-5.032163e-001 -5.544485e-002 -4.644892e+000 211 161 173
2.414793e+000 -5.418603e-001 -5.370981e+000 247 181 186
2.441468e+000 -3.740322e-001 -5.319202e+000 240 185 189
1.567413e+000 8.958045e-001 -5.279188e+000 154 90 82
3.321014e+000 4.615068e+000 -5.585412e+000 66 50 62
3.321014e+000 4.615068e+000 -5.585412e+000 66 50 62
3.338020e+000 5.011997e+000 -5.296497e+000 111 96 107
4.579453e-002 4.103495e-002 -2.147042e-001 0 255 0
4.563009e-002 4.074567e-002 -2.647031e-001 255 255 0
-5.429285e-001 6.847620e-001 9.385913e-002 255 0 0
-5.403283e-001 6.822037e-001 4.399237e-002 255 255 0
-1.113557e+000 2.224838e-001 -5.337880e-001 0 255 0
-1.102308e+000 2.206763e-001 -5.824726e-001 255 255 0
-1.123701e+000 2.103998e+000 -3.613210e-001 255 0 0
-1.111320e+000 2.093891e+000 -4.086978e-001 255 255 0
-2.207814e+000 -3.420315e+000 -2.301024e+000 0 255 0
-2.188854e+000 -3.386918e+000 -2.333042e+000 255 255 0
-8.829173e-001 -4.730165e+000 -3.467342e+000 255 0 0
-8.741797e-001 -4.686303e+000 -3.489698e+000 255 255 0
-7.687548e-001 -4.887742e+000 -3.762737e+000 0 255 0
-7.610226e-001 -4.841807e+000 -3.780910e+000 255 255 0
