ply
format ascii 1.0
element face 0
property list uchar int vertex_indices
element vertex 526
property float x
property float y
property float z
property uchar diffuse_red
property uchar diffuse_green
property uchar diffuse_blue
end_header
1.894502e+000 -1.125586e+000 -6.775754e+000 203 182 70
2.172238e+000 -8.618240e-001 -6.232985e+000 221 195 83
2.172238e+000 -8.618240e-001 -6.232985e+000 221 195 83
2.192783e+000 -8.523880e-001 -6.197109e+000 177 153 51
2.188135e+000 -7.489571e-001 -6.201903e+000 214 189 76
2.179733e+000 -7.895318e-001 -6.214620e+000 215 192 85
2.515418e+000 -4.664265e-001 -5.404272e+000 226 181 185
2.151367e+000 -9.555544e-001 -6.269481e+000 212 189 70
2.202845e+000 -6.762405e-001 -6.185292e+000 215 190 73
1.891673e+000 -1.082971e+000 -6.767488e+000 41 28 0
1.891673e+000 -1.082971e+000 -6.767488e+000 41 28 0
2.520482e+000 -3.526248e-001 -5.390415e+000 234 192 195
2.512563e+000 -4.020535e-001 -5.406922e+000 240 179 181
-8.531326e-001 5.048759e-001 -4.579496e+000 22 27 46
-8.516456e-001 5.052913e-001 -4.579158e+000 22 27 46
-8.516456e-001 5.052913e-001 -4.579158e+000 22 27 46
-8.197416e-001 -2.347252e-001 -5.056811e+000 23 24 28
8.812382e-001 5.416793e-002 -5.666709e+000 210 177 196
8.427539e-002 3.406349e-001 -5.537010e+000 144 19 27
-8.978451e-001 6.179715e-001 -4.602157e+000 201 211 244
1.044802e+000 -7.034712e-003 -5.492606e+000 173 109 126
1.012822e+000 5.587137e-001 -5.524644e+000 213 194 208
1.012822e+000 5.587137e-001 -5.524644e+000 213 194 208
3.867311e-001 4.815170e-001 -5.407083e+000 73 2 3
-8.367655e-001 3.796548e-001 -4.634158e+000 190 201 238
4.769232e-001 9.765896e-001 -5.569985e+000 163 18 29
2.326313e+000 -1.114305e+000 -5.883725e+000 202 197 105
2.854807e-002 4.387659e-001 -5.504096e+000 224 55 95
2.854807e-002 4.387659e-001 -5.504096e+000 224 55 95
8.413654e-001 5.516548e-001 -5.525710e+000 95 0 2
-5.451976e-001 4.326769e-001 -4.654939e+000 108 54 70
1.838289e-001 6.366005e-001 -5.423036e+000 218 203 221
-9.004814e-001 5.047219e-001 -4.559791e+000 17 20 27
4.213247e-001 1.066897e+000 -5.577554e+000 171 150 172
2.508431e+000 -4.648141e-001 -5.390648e+000 226 181 185
9.709130e-001 1.559362e-001 -5.723796e+000 99 3 5
-4.604692e-001 3.033060e-001 -4.602800e+000 156 98 112
1.051549e+000 6.461617e-001 -5.523855e+000 45 10 7
1.444714e-001 5.650729e-001 -5.406091e+000 82 11 26
-5.605561e-001 4.751224e-001 -4.644344e+000 235 181 194
-9.404637e-001 4.552458e-001 -4.605288e+000 183 230 255
9.676071e-001 -2.172157e-002 -5.622032e+000 66 13 22
1.246903e+000 9.189373e-002 -5.523265e+000 95 35 39
1.125024e+000 9.828916e-002 -5.577484e+000 172 101 113
7.328192e-001 1.638605e-001 -5.686369e+000 111 13 20
2.072872e+000 3.366380e-001 -6.435631e+000 147 111 51
9.228874e-001 5.953843e-001 -5.521005e+000 104 11 16
-6.414111e-002 5.967153e-001 -5.418180e+000 106 9 21
-8.637703e-001 4.732543e-001 -4.594168e+000 255 254 254
-8.737144e-001 7.489278e-001 -4.546751e+000 224 166 176
-9.061502e-001 7.470676e-001 -4.553571e+000 227 167 179
-1.012686e+000 7.455222e-001 -4.561075e+000 133 74 96
4.512841e-001 1.115243e+000 -5.570328e+000 161 21 32
1.585761e+000 1.261416e+000 -5.313846e+000 69 31 28
1.585761e+000 1.261416e+000 -5.313846e+000 69 31 28
2.692777e+000 -2.841303e+000 -9.840407e+000 59 47 61
2.294905e+000 -2.234938e+000 -1.083432e+001 121 117 134
9.277153e-001 -3.346636e-002 -5.659215e+000 173 134 153
2.115206e+000 5.902599e-001 -6.304055e+000 111 64 25
-8.435714e-001 4.085968e-001 -4.592792e+000 165 216 253
-9.652166e-001 4.265279e-001 -4.591122e+000 168 157 198
-6.044464e-001 6.069816e-001 -4.573575e+000 170 104 126
-8.975728e-001 7.158374e-001 -4.541304e+000 174 107 127
-8.975728e-001 7.158374e-001 -4.541304e+000 174 107 127
1.702316e+000 1.384225e+000 -5.461227e+000 69 30 30
2.979810e+000 -2.997336e+000 -9.130908e+000 56 47 63
2.520156e+000 -2.895580e+000 -1.025482e+001 103 99 121
2.269613e+000 -3.005016e+000 -1.103052e+001 108 101 118
1.751948e+000 -3.385808e+000 -1.255423e+001 97 90 106
2.609642e+000 -2.567776e+000 -1.006829e+001 119 113 129
2.384332e+000 -2.551589e+000 -1.061131e+001 64 53 67
2.296438e+000 -2.350595e+000 -1.094520e+001 73 53 61
2.249473e+000 -2.357183e+000 -1.100438e+001 124 120 134
2.249473e+000 -2.357183e+000 -1.100438e+001 124 120 134
2.494677e+000 -5.690958e-001 -5.461635e+000 240 183 194
2.513042e+000 -5.350247e-001 -5.401246e+000 243 196 214
2.521036e+000 -4.518042e-001 -5.379745e+000 234 171 187
2.196291e+000 -5.814151e-001 -6.186422e+000 177 147 41
2.524776e+000 -3.995603e-001 -5.350389e+000 237 187 201
9.744638e-001 1.646642e-002 -5.622982e+000 171 124 141
-4.872390e-001 -2.837980e-002 -4.744751e+000 226 178 187
-4.387795e-001 9.199424e-002 -4.662467e+000 157 101 112
-4.387795e-001 9.199424e-002 -4.662467e+000 157 101 112
-8.780645e-001 8.528744e-002 -4.626302e+000 215 151 168
-4.459503e-001 2.492873e-001 -4.614621e+000 157 99 111
1.323458e-001 5.933039e-001 -5.388918e+000 233 218 229
1.602414e-001 6.123629e-001 -5.388780e+000 229 219 231
-8.498859e-001 6.319356e-001 -4.576726e+000 241 217 230
3.960013e-001 9.267514e-001 -5.557833e+000 203 132 150
-8.550119e-001 7.193511e-001 -4.543360e+000 178 107 123
-9.347776e-001 7.304690e-001 -4.542449e+000 232 172 179
4.519930e-001 1.037932e+000 -5.568740e+000 151 23 55
2.730326e+000 -3.278859e+000 -9.770978e+000 111 102 121
2.419190e+000 -3.590437e+000 -1.065442e+001 100 95 113
2.515875e+000 -3.436533e+000 -1.042413e+001 114 111 129
2.531047e+000 -3.103797e+000 -1.033122e+001 117 106 126
2.430146e+000 -2.885500e+000 -1.055257e+001 57 46 60
2.074500e+000 -2.198894e+000 -1.141259e+001 107 92 111
1.881189e+000 -2.365557e+000 -1.207952e+001 97 86 99
2.182991e+000 -7.907096e-001 -6.220838e+000 215 192 85
2.504250e+000 -4.795809e-001 -5.423541e+000 234 189 195
-8.189932e-002 5.679589e-001 -5.385168e+000 209 176 193
1.568113e+000 1.048020e+000 -5.224933e+000 159 96 109
5.735748e-001 9.764068e-001 -5.581295e+000 212 136 155
-1.885357e-003 5.109069e-001 -5.472050e+000 243 238 244
1.971474e+000 8.131393e-001 -6.270895e+000 193 133 142
2.090982e+000 -6.147558e-001 -6.348247e+000 219 186 70
-5.179639e-002 2.965570e-001 -5.561344e+000 235 234 243
2.094071e-002 1.473471e+000 -5.892513e+000 161 16 26
-3.484001e-002 1.826958e-001 -5.726308e+000 198 31 51
1.333931e+000 2.041566e-001 -5.573058e+000 188 119 130
1.420684e+000 3.213140e-001 -5.717843e+000 65 8 8
1.265489e+000 1.220676e+000 -5.387955e+000 184 138 151
-2.997126e+000 3.138099e+000 -1.212271e+001 24 22 27
-2.997126e+000 3.138099e+000 -1.212271e+001 24 22 27
-1.266372e+000 -2.899700e+000 -1.254853e+001 63 59 70
-9.604750e-002 6.828398e-001 -5.445917e+000 193 32 49
2.327834e+000 -1.115685e+000 -5.887409e+000 202 197 105
1.180725e+000 1.206891e-001 -5.567853e+000 189 123 137
2.987558e-001 5.035061e-001 -5.417984e+000 230 208 219
-8.126107e-002 5.506345e-001 -5.490053e+000 221 208 222
-9.219808e-002 6.782200e-001 -5.410547e+000 195 34 51
1.191490e+000 1.290379e+000 -5.974875e+000 157 20 30
1.563009e+000 1.407988e+000 -5.426876e+000 168 118 129
8.159345e-001 -4.939029e+000 -1.470620e+001 42 42 51
2.377302e+000 -3.621348e+000 -1.083628e+001 38 34 49
2.377302e+000 -3.621348e+000 -1.083628e+001 38 34 49
2.982927e+000 -2.896297e+000 -9.087900e+000 60 49 64
2.404687e+000 -2.019498e+000 -8.205541e+000 188 174 148
4.719502e-001 -3.236951e+000 -1.307586e+001 105 81 64
2.528538e+000 -3.445456e-001 -5.356788e+000 224 181 193
2.528538e+000 -3.445456e-001 -5.356788e+000 224 181 193
2.659561e+000 -3.175832e+000 -9.969083e+000 53 42 51
2.652753e+000 -3.166520e+000 -9.942946e+000 53 42 51
1.726865e+000 -3.665344e+000 -1.250136e+001 10 10 12
1.740403e+000 -3.694776e+000 -1.259417e+001 10 10 12
2.291449e+000 -1.920201e+000 -8.498513e+000 178 170 140
1.510709e+000 -2.585125e+000 -1.247632e+001 110 83 65
1.376924e+000 -2.530099e+000 -1.246461e+001 18 29 45
2.029005e+000 -2.146237e+000 -1.155077e+001 54 40 42
2.494522e+000 -5.737651e-001 -5.397518e+000 225 192 209
5.742076e-001 1.257635e-001 -5.697320e+000 211 42 80
-8.941866e-001 5.761584e-001 -4.578843e+000 179 225 255
-8.033151e-001 7.381402e-001 -4.533013e+000 225 165 176
-9.501274e-001 7.657016e-001 -4.544602e+000 152 97 120
1.703769e+000 1.384053e+000 -5.465330e+000 69 30 30
6.127981e-001 1.673244e+000 -5.889309e+000 69 1 0
2.315146e+000 -3.876288e+000 -1.093560e+001 84 79 97
2.521635e+000 -3.289433e+000 -1.043028e+001 98 89 106
2.841179e+000 -2.841831e+000 -9.375687e+000 56 43 54
2.693216e+000 -2.840542e+000 -9.842109e+000 59 47 61
2.495862e+000 -2.955401e+000 -1.042402e+001 59 52 64
2.495862e+000 -2.955401e+000 -1.042402e+001 59 52 64
1.566809e+000 -3.228961e+000 -1.311410e+001 81 74 84
1.630299e+000 -2.762259e+000 -1.267207e+001 47 38 45
1.946085e+000 -2.305121e+000 -1.172354e+001 52 42 42
1.899049e+000 -1.128684e+000 -6.793355e+000 203 182 70
2.498297e+000 -5.762540e-001 -5.404841e+000 228 196 213
2.534606e+000 -3.408590e-001 -5.334084e+000 245 190 207
5.627994e-001 -2.696804e-001 -5.683343e+000 123 6 14
5.627994e-001 -2.696804e-001 -5.683343e+000 123 6 14
2.129122e+000 -2.638780e-001 -6.168080e+000 114 69 10
-8.489044e-001 -1.872766e-001 -5.008126e+000 35 44 92
-5.084205e-001 -8.175266e-002 -4.780816e+000 229 178 190
1.209240e+000 1.849689e-001 -5.607883e+000 173 95 107
5.030132e-001 2.212420e-001 -5.677328e+000 124 4 14
2.100243e+000 2.821332e-001 -6.422665e+000 84 49 7
-3.547627e-001 4.149233e-001 -4.648834e+000 207 155 168
2.164374e+000 6.151249e-001 -6.300454e+000 176 139 90
3.916060e-001 5.484025e-001 -5.469601e+000 154 28 45
-5.781854e-001 5.583370e-001 -4.594388e+000 189 126 143
-5.781854e-001 5.583370e-001 -4.594388e+000 189 126 143
-7.415181e-001 5.701217e-001 -4.616742e+000 247 228 240
3.172242e-001 6.769276e-001 -5.337341e+000 219 197 209
4.622460e-001 6.945759e-001 -5.396054e+000 246 224 228
4.622460e-001 6.945759e-001 -5.396054e+000 246 224 228
-6.039955e-001 6.074316e-001 -4.574042e+000 170 104 126
2.127465e-002 7.869676e-001 -5.511655e+000 175 25 37
-6.883763e-001 6.678375e-001 -4.552709e+000 233 177 193
5.214754e-001 8.433980e-001 -5.578543e+000 127 24 35
-9.912223e-001 7.188788e-001 -4.557475e+000 229 167 180
4.454406e-001 1.115772e+000 -5.561120e+000 155 24 37
1.227866e+000 1.096969e+000 -5.207064e+000 184 132 143
1.516381e+000 1.561722e+000 -5.538009e+000 98 65 48
2.799400e+000 -3.107691e+000 -9.568485e+000 52 45 57
2.420452e+000 -3.383096e+000 -1.062368e+001 105 97 118
2.813105e+000 -2.968640e+000 -9.560933e+000 118 111 128
2.152184e+000 -3.483093e+000 -1.131663e+001 85 77 96
2.098251e+000 -3.435944e+000 -1.149271e+001 39 35 49
2.770738e+000 -2.738214e+000 -9.629006e+000 57 41 47
2.770738e+000 -2.738214e+000 -9.629006e+000 57 41 47
2.383383e+000 -2.864025e+000 -1.076386e+001 57 46 55
1.617968e+000 -3.433114e+000 -1.288666e+001 88 85 103
2.443337e+000 -2.120278e+000 -8.157605e+000 187 177 143
1.676242e+000 -3.057697e+000 -1.268088e+001 54 48 60
2.293328e+000 -1.994231e+000 -8.447533e+000 113 98 80
2.084980e+000 -2.387913e+000 -1.150569e+001 63 47 56
1.933883e+000 -2.230562e+000 -1.193492e+001 61 47 49
1.770303e+000 -2.131640e+000 -1.233484e+001 62 47 49
2.190683e+000 -8.362635e-001 -6.262786e+000 214 191 78
2.144858e+000 -8.442342e-001 -6.321015e+000 216 192 86
2.497887e+000 -6.008312e-001 -5.471687e+000 221 70 104
2.500145e+000 -5.200605e-001 -5.447513e+000 240 180 193
2.048825e+000 -5.359982e-001 -6.502278e+000 228 191 78
2.239382e+000 -4.491169e-001 -6.124326e+000 229 196 57
2.239382e+000 -4.491169e-001 -6.124326e+000 229 196 57
2.186989e+000 -3.384018e-001 -6.174924e+000 98 62 2
2.161302e+000 -3.003435e-001 -6.180043e+000 121 76 14
2.538311e+000 -2.297369e-001 -5.351550e+000 240 192 195
-4.769880e-001 1.295182e-002 -4.700175e+000 218 170 181
-4.135119e-001 1.837553e-001 -4.649460e+000 225 164 172
2.120570e+000 2.964363e-001 -6.373927e+000 176 139 48
-3.221947e-001 4.606875e-001 -4.717147e+000 220 191 199
-9.856948e-001 4.689828e-001 -4.607567e+000 173 160 196
3.979625e-001 6.365396e-001 -5.407142e+000 243 214 219
1.820174e-001 6.831445e-001 -5.436085e+000 71 6 13
-9.346997e-001 6.078633e-001 -4.575258e+000 242 226 244
-8.599071e-001 6.939726e-001 -4.544025e+000 228 165 173
-9.149730e-001 7.774162e-001 -4.559250e+000 157 100 122
1.051686e-001 1.465738e+000 -5.849518e+000 108 2 1
-3.868061e+000 3.905836e+000 -1.173752e+001 147 93 86
2.187832e+000 -3.910663e+000 -1.126455e+001 51 45 59
2.229275e+000 -3.856819e+000 -1.115397e+001 89 87 105
9.677510e-001 -5.058539e+000 -1.461389e+001 49 48 57
2.558186e+000 -3.508555e+000 -1.030727e+001 111 107 131
2.217408e+000 -3.740354e+000 -1.111306e+001 88 85 102
2.673354e+000 -3.327446e+000 -9.989808e+000 59 54 71
2.370554e+000 -3.463527e+000 -1.083277e+001 99 95 118
2.293862e+000 -3.472388e+000 -1.096593e+001 56 46 58
2.585357e+000 -3.218965e+000 -1.020976e+001 63 47 57
2.344922e+000 -3.262818e+000 -1.076471e+001 53 46 61
2.501006e+000 -3.131544e+000 -1.039870e+001 68 58 74
2.133603e+000 -3.391480e+000 -1.141643e+001 88 81 97
1.610136e+000 -3.834428e+000 -1.292267e+001 36 26 32
2.489246e+000 -3.060321e+000 -1.046361e+001 101 93 110
1.955337e+000 -3.474126e+000 -1.193506e+001 52 47 68
1.955337e+000 -3.474126e+000 -1.193506e+001 52 47 68
2.640211e+000 -2.799142e+000 -9.963065e+000 46 34 46
2.075283e+000 -3.259138e+000 -1.164556e+001 90 78 86
2.075283e+000 -3.259138e+000 -1.164556e+001 90 78 86
1.953678e+000 -3.129544e+000 -1.189039e+001 57 49 60
1.951803e+000 -3.049371e+000 -1.185074e+001 89 85 99
1.951803e+000 -3.049371e+000 -1.185074e+001 89 85 99
2.019661e+000 -2.870153e+000 -1.169888e+001 66 59 74
2.019661e+000 -2.870153e+000 -1.169888e+001 66 59 74
2.473989e+000 -2.527305e+000 -1.041156e+001 106 99 115
2.473989e+000 -2.527305e+000 -1.041156e+001 106 99 115
2.386656e+000 -2.553524e+000 -1.062156e+001 64 53 67
2.386656e+000 -2.553524e+000 -1.062156e+001 64 53 67
1.237353e+000 -3.020577e+000 -1.396886e+001 74 67 78
2.326298e+000 -1.111626e+000 -5.883400e+000 197 196 106
2.306038e+000 -2.030857e+000 -1.086974e+001 71 60 79
2.160978e+000 -2.012949e+000 -1.110585e+001 91 79 87
2.160978e+000 -2.012949e+000 -1.110585e+001 91 79 87
1.993807e+000 -2.031717e+000 -1.165033e+001 62 50 55
2.510401e+000 -6.636115e-001 -5.369421e+000 247 138 75
2.541723e+000 -2.849720e-001 -5.319429e+000 234 190 210
2.547357e+000 -1.908955e-001 -5.344659e+000 237 193 207
-4.624322e-001 2.303526e-001 -4.618428e+000 216 162 175
-7.400259e-001 4.507225e-001 -4.597455e+000 181 161 192
2.377872e-002 5.632958e-001 -5.387030e+000 194 171 186
-9.393151e-001 4.945584e-001 -4.580648e+000 147 197 227
9.941327e-002 5.778864e-001 -5.386076e+000 239 225 235
-8.112935e-001 6.216291e-001 -4.571857e+000 235 199 216
5.441223e-001 8.556806e-001 -5.538595e+000 204 160 177
-7.108878e-001 7.206676e-001 -4.553002e+000 146 87 107
3.967379e-001 9.274220e-001 -5.559487e+000 203 132 150
-8.160919e-001 7.956202e-001 -4.563760e+000 216 161 173
4.053314e-001 1.075928e+000 -5.578220e+000 229 192 212
-3.859425e+000 3.448291e+000 -1.170114e+001 144 79 71
-5.249810e+000 3.493293e+000 -1.140048e+001 128 72 58
-5.249810e+000 3.493293e+000 -1.140048e+001 128 72 58
-5.400473e+000 3.481758e+000 -1.132768e+001 126 72 64
-5.400473e+000 3.481758e+000 -1.132768e+001 126 72 64
-3.273688e+000 3.627763e+000 -1.183139e+001 142 89 80
-3.273688e+000 3.627763e+000 -1.183139e+001 142 89 80
-4.827789e+000 3.684170e+000 -1.145824e+001 134 72 65
-4.776644e+000 3.764543e+000 -1.140735e+001 135 75 58
-3.464858e+000 3.900528e+000 -1.180466e+001 143 85 86
6.753527e-001 2.728288e-001 -5.517669e+000 210 33 57
6.753527e-001 2.728288e-001 -5.517669e+000 210 33 57
-7.573959e-001 5.491122e-001 -4.579452e+000 161 183 219
2.123067e+000 1.102522e+000 -5.936147e+000 212 176 116
7.823614e-001 7.522717e-002 -5.701350e+000 238 231 239
9.223149e-001 6.201205e-001 -5.523901e+000 147 17 25
-3.194403e+000 3.705976e+000 -1.458188e+001 28 25 33
-3.021053e+000 4.000738e+000 -1.660289e+001 96 85 103
2.481261e+000 1.811776e+000 -5.227241e+000 173 157 104
1.912628e+000 -1.016718e+000 -6.747898e+000 203 178 60
9.165010e-001 -7.137327e-002 -5.601976e+000 51 9 18
3.001071e-001 1.260389e-001 -5.595627e+000 203 42 84
6.676795e-001 1.915756e-001 -5.657685e+000 115 4 13
-5.458255e-001 3.894246e-001 -4.613775e+000 212 160 172
-7.623648e-001 4.991740e-001 -4.574792e+000 188 226 254
-8.989667e-001 6.331659e-001 -4.583096e+000 243 231 243
2.013300e+000 -2.272310e+000 -1.170497e+001 104 96 105
1.792509e+000 -1.767188e+000 -1.226712e+001 75 54 61
-8.206506e-001 -1.729046e-001 -5.032134e+000 251 253 255
8.519526e-001 7.922418e-003 -5.672480e+000 222 196 212
1.082393e+000 5.967371e-001 -5.470078e+000 102 6 13
-9.691611e-001 6.952662e-001 -4.544952e+000 173 111 132
5.641821e-001 9.375055e-001 -5.582786e+000 153 14 28
-7.515722e-001 9.120183e-001 -4.613294e+000 157 123 142
9.868836e-001 1.580026e+000 -5.728911e+000 140 25 36
2.923244e+000 -3.140268e+000 -9.248525e+000 123 117 137
2.923244e+000 -3.140268e+000 -9.248525e+000 123 117 137
2.701228e+000 -3.265946e+000 -9.897356e+000 117 111 132
2.268710e+000 -3.004231e+000 -1.102638e+001 108 101 118
2.535043e+000 -2.584027e+000 -1.021043e+001 67 55 65
2.535043e+000 -2.584027e+000 -1.021043e+001 67 55 65
2.301842e+000 -2.352770e+000 -1.095652e+001 73 53 61
2.124819e+000 -9.173857e-001 -6.325776e+000 211 187 86
2.186528e+000 -7.035886e-001 -6.223747e+000 162 136 39
2.147468e+000 -6.710901e-001 -6.297114e+000 164 169 118
2.224922e+000 -4.759414e-001 -6.105885e+000 225 194 63
2.227966e+000 -4.764087e-001 -6.114120e+000 225 194 63
1.417442e+000 2.112706e-001 -5.546521e+000 75 11 12
-4.684599e-001 2.499970e-001 -4.595116e+000 226 174 184
-8.004053e-001 3.750625e-001 -4.625889e+000 245 237 249
2.473674e+000 -3.443154e+000 -1.046452e+001 51 47 63
2.954139e+000 -2.973549e+000 -9.164989e+000 104 99 117
2.895833e+000 -2.979055e+000 -9.324923e+000 115 100 121
2.760434e+000 -3.071059e+000 -9.681111e+000 32 30 45
2.615927e+000 -3.148909e+000 -1.016604e+001 115 109 126
2.335173e+000 -3.261905e+000 -1.089638e+001 113 109 127
2.381684e+000 -2.792190e+000 -1.071495e+001 116 108 123
2.498776e+000 -2.433121e+000 -1.025892e+001 112 104 121
2.035880e+000 -1.996788e+000 -1.158057e+001 107 91 101
2.035880e+000 -1.996788e+000 -1.158057e+001 107 91 101
2.496178e+000 -5.504348e-001 -5.415262e+000 208 105 132
2.496178e+000 -5.504348e-001 -5.415262e+000 208 105 132
2.504720e+000 -5.027632e-001 -5.405763e+000 209 98 134
2.519578e+000 -4.267952e-001 -5.396130e+000 208 95 122
2.250135e+000 -4.340227e-001 -6.063876e+000 167 135 16
2.270624e+000 -1.910020e-002 -6.008150e+000 167 136 16
2.270624e+000 -1.910020e-002 -6.008150e+000 167 136 16
9.172902e-001 2.938965e-002 -5.622608e+000 223 194 208
2.465465e+000 8.840379e-002 -5.493278e+000 184 158 92
2.203431e-001 6.514615e-001 -5.392730e+000 187 156 176
-6.816354e-001 8.903691e-001 -4.624260e+000 132 93 111
-2.454353e+000 3.096423e+000 -1.187513e+001 91 86 95
-2.454353e+000 3.096423e+000 -1.187513e+001 91 86 95
2.082603e+000 5.054309e-001 -6.321462e+000 149 88 70
-4.081329e-001 -2.910378e-001 -5.318104e+000 158 131 133
5.102952e-001 1.290210e+000 -5.747122e+000 18 7 6
-2.452543e+000 1.694831e+000 -1.223493e+001 124 104 114
1.878932e+000 -1.104796e+000 -6.741342e+000 217 202 91
-4.298144e-001 -1.445486e-001 -5.009935e+000 248 206 217
1.340033e+000 1.237134e-001 -5.456414e+000 131 25 22
-8.618789e-001 1.960538e-001 -4.632695e+000 223 160 169
2.627819e-001 8.041743e-001 -5.529243e+000 231 42 72
1.415766e+000 1.296805e+000 -5.285270e+000 201 144 155
1.154932e+000 6.318515e-002 -5.439040e+000 134 59 62
9.877674e-001 6.102380e-002 -5.523593e+000 74 10 10
7.703668e-001 -2.235263e+000 -1.217125e+001 150 127 126
2.530109e+000 -5.244691e-001 -5.357285e+000 255 62 100
-7.327447e-001 3.005134e-001 -4.614398e+000 217 151 166
1.910319e+000 -1.032458e+000 -6.743240e+000 234 210 88
2.202972e+000 -6.102539e-001 -6.144970e+000 243 216 79
2.235476e+000 -5.070912e-001 -6.064167e+000 188 157 33
2.235476e+000 -5.070912e-001 -6.064167e+000 188 157 33
1.230399e+000 -3.205359e-001 -5.329638e+000 195 133 135
-9.935911e-001 2.587503e-001 -4.689019e+000 233 171 185
-4.767177e-001 3.388851e-001 -4.600044e+000 187 125 131
-5.145682e-001 4.047889e-001 -4.608513e+000 149 90 108
-8.640696e-001 7.828927e-001 -4.561051e+000 184 119 134
2.143769e+000 -8.050191e-001 -6.291482e+000 240 219 94
2.122137e+000 -8.121281e-001 -6.335516e+000 185 193 135
2.126242e+000 -8.138550e-001 -6.344750e+000 185 193 135
2.210859e+000 -7.234178e-001 -6.158845e+000 197 169 49
-8.690572e-001 2.338827e-001 -4.663526e+000 255 216 220
2.601231e+000 -2.995264e+000 -1.011685e+001 140 131 150
2.515581e+000 -2.634879e+000 -1.028143e+001 128 115 128
2.361990e+000 -2.756399e+000 -1.075559e+001 80 68 82
2.304639e+000 -2.747569e+000 -1.083821e+001 84 72 87
-1.225620e+000 -2.875923e+000 -1.301033e+001 85 46 56
2.192820e+000 -8.524594e-001 -6.197110e+000 200 173 44
2.153932e+000 -8.373906e-001 -6.259465e+000 196 170 45
1.939708e+000 -2.094119e+000 -1.184093e+001 74 49 49
2.224277e+000 -3.513629e-001 -6.106595e+000 206 172 32
-6.851384e-001 -2.036646e-001 -5.021556e+000 250 240 251
-9.094593e-001 -2.200177e-001 -5.041995e+000 155 201 235
-9.178873e-001 -1.736913e-001 -4.996107e+000 119 141 190
1.238362e+000 -9.175061e-002 -5.336605e+000 236 173 181
-4.427280e-001 -3.124499e-002 -4.766384e+000 255 209 215
9.086339e-001 1.360432e-001 -5.693524e+000 150 41 66
-6.587245e-001 3.755991e-001 -4.617479e+000 202 131 146
3.496906e-001 6.279176e-001 -5.374476e+000 153 104 124
3.638399e-001 6.522483e-001 -5.385808e+000 247 224 229
-1.038684e+000 7.944493e-001 -4.601992e+000 249 196 203
9.056581e-001 5.059194e-001 -5.474643e+000 215 196 204
1.895403e+000 -3.224195e+000 -1.217754e+001 53 44 53
2.554772e+000 -3.505320e+000 -1.029695e+001 111 107 131
2.295351e+000 -3.474002e+000 -1.096769e+001 56 46 58
5.332956e-001 1.068101e+000 -5.593429e+000 142 34 59
4.945849e-001 1.075678e+000 -5.586790e+000 140 30 54
1.409200e-001 8.874213e-001 -5.564081e+000 238 44 79
1.629326e+000 2.894655e+000 -7.335531e+000 141 135 154
-1.923503e+000 1.998121e+000 -1.160389e+001 121 100 115
-2.637172e-002 7.520551e-001 -5.473883e+000 107 3 7
-2.835767e+000 1.031099e+000 -1.250629e+001 116 95 104
1.303762e+000 1.033454e+000 -5.838165e+000 215 42 64
5.157888e-002 1.275567e+000 -5.769851e+000 181 26 39
1.365726e-001 5.625143e-001 -5.382943e+000 104 39 63
8.529089e-001 7.006028e-001 -5.570961e+000 234 44 79
4.236377e-001 8.687107e-001 -5.550389e+000 181 35 56
5.766099e-001 1.081298e+000 -5.590806e+000 188 28 41
6.068962e-001 1.668604e+000 -5.865818e+000 96 5 3
2.632894e+000 -3.350070e+000 -1.009282e+001 128 117 138
1.129118e+000 -2.933818e-001 -5.342590e+000 244 181 189
2.003997e-001 5.448774e-001 -5.388757e+000 150 99 104
1.523701e+000 1.263603e+000 -5.283862e+000 185 130 132
1.399385e-001 1.220787e+000 -5.641252e+000 116 3 7
5.148197e-001 1.385088e+000 -5.825090e+000 179 29 36
-3.436264e-001 1.733886e+000 -9.553350e+000 6 6 4
6.525265e-001 1.656433e+000 -5.835461e+000 211 40 57
1.308328e+000 2.511014e+000 -7.993685e+000 19 14 17
1.645790e+000 -4.606983e+000 -1.298078e+001 92 88 103
2.081471e+000 -3.939342e+000 -1.164291e+001 117 113 130
2.030604e+000 -3.285798e+000 -1.173619e+001 74 62 78
2.030604e+000 -3.285798e+000 -1.173619e+001 74 62 78
2.205742e+000 -5.571331e-001 -6.144438e+000 246 219 83
-4.948631e-001 3.188712e-001 -4.593284e+000 247 197 208
4.656700e-001 8.589437e-001 -5.569479e+000 231 195 215
-3.403101e-001 1.675730e+000 -9.577651e+000 72 59 60
-6.358088e-001 1.733091e+000 -1.013837e+001 14 12 15
1.610651e+000 2.410831e+000 -7.447663e+000 114 95 81
2.621463e+000 -3.393648e+000 -1.016277e+001 124 118 149
2.867685e+000 -3.043775e+000 -9.409479e+000 142 138 159
1.795148e+000 -4.265931e+000 -1.252562e+001 107 103 120
2.292918e+000 -3.232171e+000 -1.099073e+001 116 110 129
1.825107e+000 -3.175352e+000 -1.231057e+001 110 102 119
-8.876794e-001 3.000740e-001 -4.638597e+000 229 166 184
-5.159016e-001 4.337507e-001 -4.637404e+000 196 138 152
-6.627318e-001 6.766689e-001 -4.551470e+000 198 130 142
-9.328045e-001 7.130134e-001 -4.536764e+000 195 122 141
-7.477334e-001 7.366569e-001 -4.540217e+000 218 164 175
4.547360e-001 9.158549e-001 -5.565727e+000 234 151 171
5.835154e-001 1.061433e+000 -5.593803e+000 159 29 51
4.033510e-001 1.047970e+000 -5.575901e+000 243 209 229
4.458221e-001 1.062561e+000 -5.581101e+000 225 203 227
1.170625e-001 1.612536e+000 -5.880482e+000 127 2 0
2.530426e+000 -2.623447e-001 -5.325275e+000 227 157 174
2.535034e+000 -2.640233e-001 -5.332896e+000 227 157 174
2.602490e+000 -2.041237e-001 -5.490472e+000 217 37 44
2.555853e+000 -3.152988e-001 -5.287688e+000 213 37 57
2.565375e+000 -2.345300e-001 -5.262013e+000 215 38 58
2.543415e+000 -1.788176e-001 -5.299996e+000 221 180 190
2.520737e+000 -3.803358e-002 -5.319064e+000 214 39 52
2.569610e+000 1.430525e-001 -5.190293e+000 220 188 205
2.586604e+000 -1.833668e-001 -5.180771e+000 210 98 45
-3.052841e+000 -5.507567e-001 -1.479812e+001 103 100 125
-6.926078e-001 6.682894e-001 -4.544292e+000 220 166 180
2.805266e+000 -2.980806e+000 -9.649245e+000 87 79 92
2.166094e+000 -9.902682e-001 -6.240018e+000 175 148 39
2.186554e+000 -6.370293e-001 -6.214952e+000 162 134 36
2.221854e+000 -5.146389e-001 -6.123888e+000 213 182 65
2.573873e+000 -3.163822e-001 -5.210286e+000 218 37 51
-3.069006e+000 -5.809845e-001 -1.496162e+001 105 101 122
2.171705e+000 5.456892e-001 -6.239755e+000 135 83 24
-2.263886e+000 3.992307e-001 -1.222356e+001 30 22 27
-2.263886e+000 3.992307e-001 -1.222356e+001 30 22 27
4.175178e-001 1.131889e+000 -5.586970e+000 205 168 181
4.175178e-001 1.131889e+000 -5.586970e+000 205 168 181
9.745666e-001 1.629734e+000 -5.705882e+000 144 21 29
2.719198e+000 -3.493340e+000 -9.855438e+000 56 54 64
2.203157e+000 -7.709088e-001 -6.168262e+000 159 131 35
2.203157e+000 -7.709088e-001 -6.168262e+000 159 131 35
2.241297e+000 -4.724165e-001 -6.068409e+000 172 142 32
2.559491e+000 -5.999948e-002 -5.236447e+000 221 186 200
2.561843e+000 -1.409141e-002 -5.216690e+000 228 178 201
2.535862e+000 1.452579e-002 -5.288991e+000 229 167 175
2.535862e+000 1.452579e-002 -5.288991e+000 229 167 175
2.573023e+000 1.769414e-001 -5.171674e+000 208 42 65
2.587811e+000 2.724308e-001 -5.150557e+000 190 71 99
2.587811e+000 2.724308e-001 -5.150557e+000 190 71 99
-8.867755e-001 2.770279e-001 -4.639841e+000 230 170 184
-1.893959e+000 5.652847e-001 -1.165879e+001 39 29 37
-1.893959e+000 5.652847e-001 -1.165879e+001 39 29 37
-7.399203e-001 4.500278e-001 -4.592054e+000 166 140 175
-1.068162e+000 6.322416e-001 -4.565012e+000 177 111 130
3.670557e-001 9.122695e-001 -5.551137e+000 147 25 40
3.950832e-001 9.263145e-001 -5.556599e+000 183 112 129
5.686540e-001 1.007895e+000 -5.584530e+000 132 8 22
2.796725e+000 -2.899166e+000 -9.554371e+000 41 31 41
2.161775e+000 -8.979687e-001 -6.256401e+000 205 177 65
2.540259e+000 -2.829589e-001 -5.310168e+000 234 185 202
2.532580e+000 -1.884727e-001 -5.317948e+000 230 182 190
2.554235e+000 -3.218842e-002 -5.249349e+000 190 82 110
2.554235e+000 -3.218842e-002 -5.249349e+000 190 82 110
2.586217e+000 1.951003e-001 -5.144613e+000 250 156 168
2.586217e+000 1.951003e-001 -5.144613e+000 250 156 168
2.564047e+000 5.739575e-002 -5.222824e+000 231 165 179
2.564047e+000 5.739575e-002 -5.222824e+000 231 165 179
2.545582e+000 -1.772816e-001 -5.302357e+000 221 180 190
2.576885e+000 -2.164540e-003 -5.186068e+000 207 46 66
2.537578e+000 -9.845361e-002 -5.305605e+000 228 185 199
2.395268e+000 -5.574331e-001 -5.699500e+000 164 134 16
2.234639e+000 -5.444631e-001 -6.091047e+000 154 125 24
2.538654e+000 -3.409779e-001 -5.339412e+000 229 182 199
2.237422e+000 -2.307084e-001 -6.063015e+000 164 134 26
2.382730e+000 -7.060071e-001 -5.762395e+000 159 131 23
2.495388e+000 -4.895868e-001 -5.450661e+000 206 64 74
2.430280e+000 -2.460356e-001 -5.600489e+000 175 143 24
2.550976e+000 -8.520425e-002 -5.269577e+000 194 79 112
2.544374e+000 3.264491e-002 -5.262077e+000 199 76 92
2.581066e+000 1.510399e-001 -5.158098e+000 233 168 187
2.543881e+000 2.207333e-001 -5.216794e+000 255 59 95
2.574773e+000 1.038879e-002 -5.259180e+000 226 168 192
2.643353e+000 3.846367e-001 -4.979357e+000 250 146 73
2.606090e+000 2.151528e-001 -5.102211e+000 255 63 106
2.587226e+000 1.391585e-001 -5.119377e+000 255 65 107
-7.557534e-001 1.025394e+000 -9.966515e+000 67 52 60
2.487625e+000 1.236737e+000 -4.799252e+000 252 200 98
2.592042e+000 2.841224e-001 -5.116103e+000 255 198 213
2.576359e+000 2.178503e-001 -5.157576e+000 247 69 109
8.029995e-002 3.804737e-002 -1.038034e-001 0 255 0
7.998484e-002 3.768954e-002 -1.538011e-001 255 255 0
-5.407203e-001 7.004216e-001 2.240077e-001 255 0 0
-5.381616e-001 6.977386e-001 1.741454e-001 255 255 0
-1.127270e+000 2.094903e-001 -4.373285e-001 0 255 0
-1.116065e+000 2.077566e-001 -4.860258e-001 255 255 0
-1.165141e+000 2.167389e+000 -2.529839e-001 255 0 0
-1.152734e+000 2.157132e+000 -3.003217e-001 255 255 0
-2.148473e+000 -3.795138e+000 -2.299621e+000 0 255 0
-2.130636e+000 -3.760351e+000 -2.330794e+000 255 255 0
