ply
format ascii 1.0
element face 0
property list uchar int vertex_indices
element vertex 283
property float x
property float y
property float z
property uchar diffuse_red
property uchar diffuse_green
property uchar diffuse_blue
end_header
1.928688e+000 -1.163357e+000 -6.850808e+000 203 182 70
2.217071e+000 -8.915341e-001 -6.312116e+000 221 195 83
2.217071e+000 -8.915341e-001 -6.312116e+000 221 195 83
2.232524e+000 -8.786291e-001 -6.264386e+000 177 153 51
2.242075e+000 -7.771830e-001 -6.300102e+000 214 189 76
2.225431e+000 -8.154927e-001 -6.292334e+000 215 192 85
2.558211e+000 -4.793713e-001 -5.480442e+000 226 181 185
2.201143e+000 -9.943260e-001 -6.368244e+000 212 189 70
2.242773e+000 -6.935568e-001 -6.248915e+000 215 190 73
1.934717e+000 -1.124665e+000 -6.862719e+000 41 28 0
1.934717e+000 -1.124665e+000 -6.862719e+000 41 28 0
2.563815e+000 -3.601113e-001 -5.462726e+000 234 192 195
2.555570e+000 -4.120931e-001 -5.479074e+000 240 179 181
-9.731991e-001 5.567009e-001 -4.605833e+000 22 27 46
-9.731991e-001 5.567009e-001 -4.605833e+000 22 27 46
-9.731991e-001 5.567009e-001 -4.605833e+000 22 27 46
-9.359466e-001 -2.153343e-001 -5.072142e+000 23 24 28
8.487779e-001 8.104717e-002 -5.641370e+000 210 177 196
2.041542e-002 3.814151e-001 -5.504552e+000 144 19 27
-1.018798e+000 6.741800e-001 -4.622905e+000 201 211 244
1.012753e+000 2.234982e-002 -5.453820e+000 173 109 126
9.895173e-001 6.068344e-001 -5.512555e+000 213 194 208
9.895173e-001 6.068344e-001 -5.512555e+000 213 194 208
3.359313e-001 5.284046e-001 -5.409666e+000 73 2 3
-9.586765e-001 4.268183e-001 -4.670874e+000 190 201 238
4.344506e-001 1.047917e+000 -5.570853e+000 163 18 29
2.368835e+000 -1.157588e+000 -5.974010e+000 202 197 105
-3.846913e-002 4.846387e-001 -5.515886e+000 224 55 95
-3.846913e-002 4.846387e-001 -5.515886e+000 224 55 95
8.093351e-001 6.000299e-001 -5.504387e+000 95 0 2
-6.494617e-001 4.796960e-001 -4.664814e+000 108 54 70
1.235533e-001 6.921625e-001 -5.412014e+000 218 203 221
-1.023454e+000 5.551686e-001 -4.591591e+000 17 20 27
3.750780e-001 1.141120e+000 -5.574463e+000 171 150 172
2.558211e+000 -4.793713e-001 -5.480442e+000 226 181 185
9.481584e-001 1.863237e-001 -5.723254e+000 99 3 5
-5.617983e-001 3.441061e-001 -4.592709e+000 156 98 112
1.032448e+000 6.973732e-001 -5.521674e+000 45 10 7
8.232381e-002 6.178247e-001 -5.408070e+000 82 11 26
-6.639884e-001 5.245622e-001 -4.642126e+000 235 181 194
-1.066117e+000 5.041236e-001 -4.629448e+000 183 230 255
9.411756e-001 1.137850e-003 -5.616191e+000 66 13 22
1.237779e+000 1.151081e-001 -5.541352e+000 95 35 39
1.112581e+000 1.222669e-001 -5.601753e+000 172 101 113
7.063113e-001 1.941741e-001 -5.735016e+000 111 13 20
2.100110e+000 3.683882e-001 -6.433053e+000 147 111 51
9.008418e-001 6.448554e-001 -5.532945e+000 104 11 16
-1.360214e-001 6.534194e-001 -5.435560e+000 106 9 21
-9.839256e-001 5.249133e-001 -4.624233e+000 255 254 254
-9.941030e-001 8.148702e-001 -4.586384e+000 224 166 176
-1.028219e+000 8.124058e-001 -4.589619e+000 227 167 179
-1.139645e+000 8.104943e-001 -4.601540e+000 133 74 96
4.078612e-001 1.191224e+000 -5.568489e+000 161 21 32
1.585371e+000 1.330016e+000 -5.318441e+000 69 31 28
1.585371e+000 1.330016e+000 -5.318441e+000 69 31 28
2.761187e+000 -2.922935e+000 -9.895537e+000 59 47 61
2.370917e+000 -2.293455e+000 -1.087633e+001 121 117 134
9.032469e-001 -1.459025e-002 -5.669935e+000 173 134 153
2.166648e+000 6.349149e-001 -6.368126e+000 111 64 25
-9.651657e-001 4.567049e-001 -4.625031e+000 165 216 253
-1.092203e+000 4.751801e-001 -4.634454e+000 168 157 198
-7.111430e-001 6.633204e-001 -4.590779e+000 170 104 126
-1.019828e+000 7.791082e-001 -4.575500e+000 174 107 127
-1.019828e+000 7.791082e-001 -4.575500e+000 174 107 127
1.714849e+000 1.459890e+000 -5.489165e+000 69 30 30
3.029296e+000 -3.069105e+000 -9.160455e+000 56 47 63
2.576809e+000 -2.968521e+000 -1.026635e+001 103 99 121
2.341323e+000 -3.097137e+000 -1.109910e+001 108 101 118
1.799512e+000 -3.455677e+000 -1.252580e+001 97 90 106
2.688491e+000 -2.647597e+000 -1.013721e+001 119 113 129
2.459733e+000 -2.626304e+000 -1.066877e+001 64 53 67
2.390326e+000 -2.435056e+000 -1.106467e+001 73 53 61
2.332698e+000 -2.430549e+000 -1.108407e+001 124 120 134
2.332698e+000 -2.430549e+000 -1.108407e+001 124 120 134
2.538297e+000 -5.870586e-001 -5.539988e+000 240 183 194
2.557269e+000 -5.514749e-001 -5.481808e+000 243 196 214
2.571349e+000 -4.657398e-001 -5.470318e+000 234 171 187
2.246690e+000 -5.971745e-001 -6.269127e+000 177 147 41
2.568653e+000 -4.097568e-001 -5.427537e+000 237 187 201
9.516873e-001 3.771926e-002 -5.631468e+000 171 124 141
-5.902559e-001 -2.948250e-003 -4.746742e+000 226 178 187
-5.402320e-001 1.219084e-001 -4.668886e+000 157 101 112
-5.402320e-001 1.219084e-001 -4.668886e+000 157 101 112
-1.000412e+000 1.179440e-001 -4.642900e+000 215 151 168
-5.474153e-001 2.872713e-001 -4.617770e+000 157 99 111
6.960433e-002 6.473941e-001 -5.390273e+000 233 218 229
9.923667e-002 6.662796e-001 -5.387789e+000 229 219 231
-9.672084e-001 6.898779e-001 -4.594990e+000 241 217 230
3.503734e-001 9.962953e-001 -5.560977e+000 203 132 150
-9.746901e-001 7.831662e-001 -4.580503e+000 178 107 123
-1.058371e+000 7.945498e-001 -4.579313e+000 232 172 179
4.069858e-001 1.110794e+000 -5.566803e+000 151 23 55
2.777681e+000 -3.354288e+000 -9.788657e+000 111 102 121
2.470605e+000 -3.682606e+000 -1.068643e+001 100 95 113
2.562818e+000 -3.518173e+000 -1.043663e+001 114 111 129
2.589857e+000 -3.185397e+000 -1.036049e+001 117 106 126
2.493040e+000 -2.962645e+000 -1.058005e+001 57 46 60
2.134543e+000 -2.237325e+000 -1.138244e+001 107 92 111
1.954268e+000 -2.424966e+000 -1.212551e+001 97 86 99
2.225431e+000 -8.154927e-001 -6.292334e+000 215 192 85
2.549008e+000 -4.931561e-001 -5.502443e+000 234 189 195
-1.551336e-001 6.221588e-001 -5.384149e+000 209 176 193
1.576493e+000 1.113317e+000 -5.260474e+000 159 96 109
5.355580e-001 1.045636e+000 -5.578919e+000 212 136 155
-7.082192e-002 5.626358e-001 -5.471545e+000 243 238 244
2.002293e+000 8.676343e-001 -6.290375e+000 193 133 142
2.127305e+000 -6.276327e-001 -6.399344e+000 219 186 70
-1.235567e-001 3.389404e-001 -5.560241e+000 235 234 243
-3.581354e-002 1.570347e+000 -5.904302e+000 161 16 26
-1.047353e-001 2.204441e-001 -5.724844e+000 198 31 51
1.327951e+000 2.327303e-001 -5.584051e+000 188 119 130
1.420653e+000 3.554858e-001 -5.729053e+000 65 8 8
1.257874e+000 1.294322e+000 -5.400419e+000 184 138 151
-2.990443e+000 3.230758e+000 -1.177715e+001 24 22 27
-2.990443e+000 3.230758e+000 -1.177715e+001 24 22 27
-1.325136e+000 -2.935582e+000 -1.254528e+001 63 59 70
-1.649044e-001 7.438049e-001 -5.431330e+000 193 32 49
2.368835e+000 -1.157588e+000 -5.974010e+000 202 197 105
1.167129e+000 1.463696e-001 -5.576372e+000 189 123 137
2.434353e-001 5.526486e-001 -5.415289e+000 230 208 219
-1.534918e-001 6.048266e-001 -5.490718e+000 221 208 222
-1.649263e-001 7.381467e-001 -5.413299e+000 195 34 51
1.187114e+000 1.370476e+000 -5.982852e+000 157 20 30
1.568280e+000 1.486156e+000 -5.448145e+000 168 118 129
8.463667e-001 -5.049431e+000 -1.472487e+001 42 42 51
2.417629e+000 -3.700223e+000 -1.082745e+001 38 34 49
2.417629e+000 -3.700223e+000 -1.082745e+001 38 34 49
3.040784e+000 -2.973567e+000 -9.135700e+000 60 49 64
2.460240e+000 -2.085941e+000 -8.276812e+000 188 174 148
4.846583e-001 -3.309701e+000 -1.310370e+001 105 81 64
2.570416e+000 -3.514057e-001 -5.427896e+000 224 181 193
2.570416e+000 -3.514057e-001 -5.427896e+000 224 181 193
2.712865e+000 -3.254661e+000 -9.992607e+000 53 42 51
2.712865e+000 -3.254661e+000 -9.992607e+000 53 42 51
1.780914e+000 -3.762290e+000 -1.253964e+001 10 10 12
1.780914e+000 -3.762290e+000 -1.253964e+001 10 10 12
2.346981e+000 -1.981063e+000 -8.562197e+000 178 170 140
1.567079e+000 -2.645768e+000 -1.250422e+001 110 83 65
1.427724e+000 -2.587701e+000 -1.249088e+001 18 29 45
2.101935e+000 -2.197358e+000 -1.158153e+001 54 40 42
2.532139e+000 -5.905587e-001 -5.468083e+000 225 192 209
5.326469e-001 1.566220e-001 -5.695580e+000 211 42 80
-1.015495e+000 6.322134e-001 -4.606059e+000 179 225 255
-9.237535e-001 8.008202e-001 -4.567722e+000 225 165 176
-1.074382e+000 8.310868e-001 -4.580501e+000 152 97 120
1.714849e+000 1.459890e+000 -5.489165e+000 69 30 30
5.840453e-001 1.773887e+000 -5.902909e+000 69 1 0
2.363586e+000 -3.975167e+000 -1.097348e+001 84 79 97
2.584295e+000 -3.384655e+000 -1.048717e+001 98 89 106
2.905096e+000 -2.922606e+000 -9.429524e+000 56 43 54
2.761187e+000 -2.922935e+000 -9.895537e+000 59 47 61
2.563559e+000 -3.040518e+000 -1.047432e+001 59 52 64
2.563559e+000 -3.040518e+000 -1.047432e+001 59 52 64
1.626397e+000 -3.309800e+000 -1.314464e+001 81 74 84
1.692270e+000 -2.829193e+000 -1.270083e+001 47 38 45
2.015959e+000 -2.361465e+000 -1.175569e+001 52 42 42
1.928688e+000 -1.163357e+000 -6.850808e+000 203 182 70
2.540384e+000 -5.940213e-001 -5.482816e+000 228 196 213
2.576176e+000 -3.476368e-001 -5.405403e+000 245 190 207
5.182736e-001 -2.577049e-001 -5.686863e+000 123 6 14
5.182736e-001 -2.577049e-001 -5.686863e+000 123 6 14
2.165734e+000 -2.605801e-001 -6.211505e+000 114 69 10
-9.664183e-001 -1.650401e-001 -5.022053e+000 35 44 92
-6.126535e-001 -5.819326e-002 -4.786402e+000 229 178 190
1.197616e+000 2.137151e-001 -5.615859e+000 173 95 107
4.583944e-001 2.570026e-001 -5.674546e+000 124 4 14
2.137866e+000 3.128740e-001 -6.449222e+000 84 49 7
-4.502389e-001 4.602668e-001 -4.654273e+000 207 155 168
2.202974e+000 6.595052e-001 -6.325660e+000 176 139 90
3.415871e-001 5.992958e-001 -5.467402e+000 154 28 45
-6.841397e-001 6.117464e-001 -4.609005e+000 189 126 143
-6.841397e-001 6.117464e-001 -4.609005e+000 189 126 143
-8.550374e-001 6.251816e-001 -4.637317e+000 247 228 240
2.631067e-001 7.337157e-001 -5.336351e+000 219 197 209
4.157616e-001 7.514802e-001 -5.395226e+000 246 224 228
4.157616e-001 7.514802e-001 -5.395226e+000 246 224 228
-7.111430e-001 6.633204e-001 -4.590779e+000 170 104 126
-4.422146e-002 8.517310e-001 -5.514222e+000 175 25 37
-7.995413e-001 7.271423e-001 -4.574286e+000 233 177 193
4.805437e-001 9.075571e-001 -5.578270e+000 127 24 35
-1.116873e+000 7.825325e-001 -4.593773e+000 229 167 180
4.025689e-001 1.192836e+000 -5.565549e+000 155 24 37
1.216293e+000 1.164856e+000 -5.218246e+000 184 132 143
1.521579e+000 1.647081e+000 -5.561137e+000 98 65 48
2.859610e+000 -3.194559e+000 -9.623428e+000 52 45 57
2.480333e+000 -3.476811e+000 -1.067173e+001 105 97 118
2.857106e+000 -3.031175e+000 -9.553626e+000 118 111 128
2.210218e+000 -3.579311e+000 -1.136200e+001 85 77 96
2.147937e+000 -3.515377e+000 -1.149084e+001 39 35 49
2.840073e+000 -2.818067e+000 -9.683863e+000 57 41 47
2.840073e+000 -2.818067e+000 -9.683863e+000 57 41 47
2.453283e+000 -2.946052e+000 -1.081202e+001 57 46 55
1.674952e+000 -3.521748e+000 -1.292082e+001 88 85 103
2.498124e+000 -2.190499e+000 -8.231592e+000 187 177 143
1.737445e+000 -3.135578e+000 -1.271380e+001 54 48 60
2.347514e+000 -2.058342e+000 -8.513573e+000 113 98 80
2.157692e+000 -2.449420e+000 -1.154193e+001 63 47 56
2.006009e+000 -2.282520e+000 -1.196346e+001 61 47 49
1.840360e+000 -2.176381e+000 -1.235794e+001 62 47 49
2.230504e+000 -8.614593e-001 -6.327185e+000 214 191 78
2.183117e+000 -8.692286e-001 -6.383194e+000 216 192 86
2.540874e+000 -6.195024e-001 -5.549517e+000 221 70 104
2.542891e+000 -5.349201e-001 -5.522814e+000 240 180 193
2.084582e+000 -5.437146e-001 -6.546922e+000 228 191 78
2.280368e+000 -4.559079e-001 -6.178221e+000 229 196 57
2.280368e+000 -4.559079e-001 -6.178221e+000 229 196 57
2.226187e+000 -3.391051e-001 -6.222588e+000 98 62 2
2.199431e+000 -2.989802e-001 -6.225543e+000 121 76 14
2.579936e+000 -2.312011e-001 -5.418961e+000 240 192 195
-5.801357e-001 4.026357e-002 -4.705095e+000 218 170 181
-5.132354e-001 2.184195e-001 -4.653647e+000 225 164 172
2.169307e+000 3.272343e-001 -6.431782e+000 176 139 48
-4.150407e-001 5.083755e-001 -4.722340e+000 220 191 199
-1.111477e+000 5.204080e-001 -4.635827e+000 173 160 196
3.481431e-001 6.912146e-001 -5.405530e+000 243 214 219
1.225974e-001 7.416106e-001 -5.435809e+000 71 6 13
-1.057865e+000 6.657033e-001 -4.605208e+000 242 226 244
-9.794361e-001 7.555666e-001 -4.573566e+000 228 165 173
-1.036590e+000 8.436106e-001 -4.593867e+000 157 100 122
5.186301e-002 1.561853e+000 -5.862062e+000 108 2 1
-3.807012e+000 3.946845e+000 -1.133627e+001 147 93 86
2.237067e+000 -4.011757e+000 -1.130318e+001 51 45 59
2.279498e+000 -3.957369e+000 -1.119417e+001 89 87 105
1.001169e+000 -5.170895e+000 -1.463036e+001 49 48 57
2.612184e+000 -3.601135e+000 -1.034977e+001 111 107 131
2.269392e+000 -3.840028e+000 -1.115574e+001 88 85 102
2.725208e+000 -3.410326e+000 -1.001845e+001 59 54 71
2.437402e+000 -3.570113e+000 -1.091081e+001 99 95 118
2.366894e+000 -3.589683e+000 -1.107366e+001 56 46 58
2.646581e+000 -3.308676e+000 -1.025827e+001 63 47 57
2.406331e+000 -3.354923e+000 -1.081331e+001 53 46 61
2.564994e+000 -3.220713e+000 -1.044899e+001 68 58 74
2.193772e+000 -3.485419e+000 -1.146102e+001 88 81 97
1.658850e+000 -3.926981e+000 -1.293691e+001 36 26 32
2.555297e+000 -3.147992e+000 -1.051394e+001 101 93 110
2.014049e+000 -3.568602e+000 -1.197667e+001 52 47 68
2.014049e+000 -3.568602e+000 -1.197667e+001 52 47 68
2.709462e+000 -2.880900e+000 -1.001664e+001 46 34 46
2.138217e+000 -3.349088e+000 -1.168847e+001 90 78 86
2.138217e+000 -3.349088e+000 -1.168847e+001 90 78 86
2.016606e+000 -3.214643e+000 -1.193104e+001 57 49 60
2.015197e+000 -3.132091e+000 -1.189096e+001 89 85 99
2.015197e+000 -3.132091e+000 -1.189096e+001 89 85 99
2.086275e+000 -2.947881e+000 -1.173874e+001 66 59 74
2.086275e+000 -2.947881e+000 -1.173874e+001 66 59 74
2.548204e+000 -2.600095e+000 -1.046041e+001 106 99 115
2.548204e+000 -2.600095e+000 -1.046041e+001 106 99 115
2.459733e+000 -2.626304e+000 -1.066877e+001 64 53 67
2.459733e+000 -2.626304e+000 -1.066877e+001 64 53 67
1.294193e+000 -3.087515e+000 -1.398947e+001 74 67 78
2.367246e+000 -1.153364e+000 -5.969913e+000 197 196 106
2.384711e+000 -2.082324e+000 -1.090673e+001 71 60 79
2.236146e+000 -2.061713e+000 -1.113915e+001 91 79 87
2.236146e+000 -2.061713e+000 -1.113915e+001 91 79 87
2.067236e+000 -2.077330e+000 -1.167799e+001 62 50 55
2.552159e+000 -6.857541e-001 -5.451534e+000 247 138 75
2.583008e+000 -2.891725e-001 -5.389107e+000 234 190 210
2.588879e+000 -1.905978e-001 -5.411048e+000 237 193 207
-5.645401e-001 2.673557e-001 -4.624268e+000 216 162 175
-8.543372e-001 4.998331e-001 -4.615369e+000 181 161 192
-4.450322e-002 6.169264e-001 -5.386880e+000 194 171 186
-1.063137e+000 5.468506e-001 -4.607744e+000 147 197 227
3.482163e-002 6.317151e-001 -5.385495e+000 239 225 235
-9.284665e-001 6.794394e-001 -4.596894e+000 235 199 216
5.039170e-001 9.200609e-001 -5.538671e+000 204 160 177
-8.228500e-001 7.827554e-001 -4.577002e+000 146 87 107
3.503734e-001 9.962953e-001 -5.560977e+000 203 132 150
-9.326857e-001 8.621724e-001 -4.594481e+000 216 161 173
3.605616e-001 1.151620e+000 -5.582316e+000 229 192 212
-3.816058e+000 3.508341e+000 -1.132191e+001 144 79 71
-5.140562e+000 3.523198e+000 -1.104553e+001 128 72 58
-5.140562e+000 3.523198e+000 -1.104553e+001 128 72 58
-5.288062e+000 3.511799e+000 -1.099297e+001 126 72 64
-5.288062e+000 3.511799e+000 -1.099297e+001 126 72 64
-3.246175e+000 3.697255e+000 -1.146049e+001 142 89 80
-3.246175e+000 3.697255e+000 -1.146049e+001 142 89 80
-4.732639e+000 3.713470e+000 -1.108497e+001 134 72 65
-4.683753e+000 3.792766e+000 -1.104173e+001 135 75 58
-3.420906e+000 3.953502e+000 -1.141337e+001 143 85 86
-4.877155e-002 3.776158e-002 -9.276988e-002 0 255 0
-4.853923e-002 3.765929e-002 -1.427692e-001 255 255 0
-6.989655e-001 7.413235e-001 2.637526e-001 255 0 0
-6.957588e-001 7.387220e-001 2.139234e-001 255 255 0
