ply
format ascii 1.0
element face 0
property list uchar int vertex_indices
element vertex 396
property float x
property float y
property float z
property uchar diffuse_red
property uchar diffuse_green
property uchar diffuse_blue
end_header
1.917308e+000 -1.159250e+000 -6.806092e+000 203 182 70
2.206760e+000 -8.920536e-001 -6.256014e+000 221 195 83
2.206760e+000 -8.920536e-001 -6.256014e+000 221 195 83
2.225775e+000 -8.816038e-001 -6.215541e+000 177 153 51
2.226397e+000 -7.778153e-001 -6.232658e+000 214 189 76
2.216649e+000 -8.186008e-001 -6.241982e+000 215 192 85
2.556861e+000 -4.865656e-001 -5.397097e+000 226 181 185
2.185494e+000 -9.894677e-001 -6.296575e+000 212 189 70
2.234796e+000 -6.998694e-001 -6.202068e+000 215 190 73
1.921633e+000 -1.119759e+000 -6.814878e+000 41 28 0
1.921633e+000 -1.119759e+000 -6.814878e+000 41 28 0
2.569843e+000 -3.707893e-001 -5.396605e+000 234 192 195
2.561513e+000 -4.219479e-001 -5.413114e+000 240 179 181
-9.305320e-001 5.218457e-001 -4.576454e+000 22 27 46
-9.305320e-001 5.218457e-001 -4.576454e+000 22 27 46
-9.305320e-001 5.218457e-001 -4.576454e+000 22 27 46
-8.915000e-001 -2.472800e-001 -5.070620e+000 23 24 28
8.762542e-001 5.247028e-002 -5.679962e+000 210 177 196
5.292040e-002 3.505028e-001 -5.549079e+000 144 19 27
-9.745085e-001 6.377816e-001 -4.580758e+000 201 211 244
1.045068e+000 -1.136105e-002 -5.500638e+000 173 109 126
1.012514e+000 5.745176e-001 -5.532924e+000 213 194 208
1.012514e+000 5.745176e-001 -5.532924e+000 213 194 208
3.639590e-001 4.955836e-001 -5.416829e+000 73 2 3
-9.130845e-001 3.913730e-001 -4.633046e+000 190 201 238
4.584983e-001 1.007962e+000 -5.583319e+000 163 18 29
2.364773e+000 -1.154101e+000 -5.900762e+000 202 197 105
-6.690052e-003 4.517204e-001 -5.520383e+000 224 55 95
-6.690052e-003 4.517204e-001 -5.520383e+000 224 55 95
8.351394e-001 5.674877e-001 -5.535053e+000 95 0 2
-6.092088e-001 4.462889e-001 -4.650477e+000 108 54 70
1.539445e-001 6.566330e-001 -5.435139e+000 218 203 221
-9.800610e-001 5.217455e-001 -4.556696e+000 17 20 27
3.989669e-001 1.099784e+000 -5.582803e+000 171 150 172
2.556861e+000 -4.865656e-001 -5.397097e+000 226 181 185
9.691332e-001 1.577645e-001 -5.737574e+000 99 3 5
-5.217416e-001 3.110933e-001 -4.585618e+000 156 98 112
1.052665e+000 6.649800e-001 -5.532001e+000 45 10 7
1.129843e-001 5.825574e-001 -5.418142e+000 82 11 26
-6.252421e-001 4.905083e-001 -4.639666e+000 235 181 194
-1.020722e+000 4.689653e-001 -4.589593e+000 183 230 255
9.653672e-001 -2.623585e-002 -5.633661e+000 66 13 22
1.254153e+000 9.091779e-002 -5.530745e+000 95 35 39
1.128174e+000 9.775165e-002 -5.586839e+000 172 101 113
7.229314e-001 1.661869e-001 -5.701000e+000 111 13 20
2.103807e+000 3.433152e-001 -6.456873e+000 147 111 51
9.194706e-001 6.126261e-001 -5.529567e+000 104 11 16
-1.031536e-001 6.156598e-001 -5.432956e+000 106 9 21
-9.416554e-001 4.896083e-001 -4.599702e+000 255 254 254
-9.522616e-001 7.771835e-001 -4.550239e+000 224 166 176
-9.856200e-001 7.741865e-001 -4.550254e+000 227 167 179
-1.096475e+000 7.726604e-001 -4.559496e+000 133 74 96
4.313128e-001 1.150601e+000 -5.578750e+000 161 21 32
1.605825e+000 1.301162e+000 -5.317100e+000 69 31 28
1.605825e+000 1.301162e+000 -5.317100e+000 69 31 28
2.712649e+000 -2.872583e+000 -9.861662e+000 59 47 61
2.311052e+000 -2.251533e+000 -1.084726e+001 121 117 134
9.241627e-001 -3.827945e-002 -5.671987e+000 173 134 153
2.147889e+000 6.044407e-001 -6.322973e+000 111 64 25
-9.205710e-001 4.215310e-001 -4.590216e+000 165 216 253
-1.049618e+000 4.413346e-001 -4.609081e+000 168 157 198
-6.711193e-001 6.282616e-001 -4.569021e+000 170 104 126
-9.774703e-001 7.416077e-001 -4.538147e+000 174 107 127
-9.774703e-001 7.416077e-001 -4.538147e+000 174 107 127
1.725860e+000 1.427082e+000 -5.467798e+000 69 30 30
3.003337e+000 -3.036775e+000 -9.153178e+000 56 47 63
2.537288e+000 -2.922872e+000 -1.027342e+001 103 99 121
2.282779e+000 -3.023784e+000 -1.103931e+001 108 101 118
1.751621e+000 -3.370787e+000 -1.247906e+001 97 90 106
2.629257e+000 -2.594509e+000 -1.008838e+001 119 113 129
2.400768e+000 -2.572714e+000 -1.062682e+001 64 53 67
2.311903e+000 -2.366749e+000 -1.095573e+001 73 53 61
2.264576e+000 -2.372902e+000 -1.101470e+001 124 120 134
2.264576e+000 -2.372902e+000 -1.101470e+001 124 120 134
2.541985e+000 -5.940150e-001 -5.469671e+000 240 183 194
2.561383e+000 -5.590976e-001 -5.408123e+000 243 196 214
2.569937e+000 -4.731639e-001 -5.385967e+000 234 171 187
2.233524e+000 -6.038075e-001 -6.212302e+000 177 147 41
2.574151e+000 -4.192816e-001 -5.356016e+000 237 187 201
9.724814e-001 1.328831e-002 -5.634453e+000 171 124 141
-5.485754e-001 -3.370091e-002 -4.743138e+000 226 178 187
-4.987365e-001 9.143202e-002 -4.657089e+000 157 101 112
-4.987365e-001 9.143202e-002 -4.657089e+000 157 101 112
-9.571007e-001 8.458580e-002 -4.626837e+000 215 151 168
-5.065555e-001 2.550909e-001 -4.604312e+000 157 99 111
1.003412e-001 6.118239e-001 -5.399822e+000 233 218 229
1.292847e-001 6.312390e-001 -5.393024e+000 229 219 231
-9.269787e-001 6.541910e-001 -4.573446e+000 241 217 230
3.754323e-001 9.569635e-001 -5.572879e+000 203 132 150
-9.322195e-001 7.458062e-001 -4.541778e+000 178 107 123
-1.015587e+000 7.569468e-001 -4.539105e+000 232 172 179
4.305039e-001 1.069722e+000 -5.572822e+000 151 23 55
2.754483e+000 -3.320170e+000 -9.810232e+000 111 102 121
2.431309e+000 -3.615322e+000 -1.066548e+001 100 95 113
2.523865e+000 -3.458134e+000 -1.042029e+001 114 111 129
2.547032e+000 -3.131189e+000 -1.034787e+001 117 106 126
2.445848e+000 -2.909300e+000 -1.056791e+001 57 46 60
2.088230e+000 -2.209711e+000 -1.141711e+001 107 92 111
1.892804e+000 -2.370291e+000 -1.207013e+001 97 86 99
2.216649e+000 -8.186008e-001 -6.241982e+000 215 192 85
2.552315e+000 -5.016864e-001 -5.430654e+000 234 189 195
-1.218235e-001 5.858942e-001 -5.399186e+000 209 176 193
1.587645e+000 1.080673e+000 -5.225408e+000 159 96 109
5.590616e-001 1.008085e+000 -5.598317e+000 212 136 155
-3.834597e-002 5.263078e-001 -5.484755e+000 243 238 244
2.001370e+000 8.345333e-001 -6.292828e+000 193 133 142
2.123124e+000 -6.372793e-001 -6.374553e+000 219 186 70
-8.967514e-002 3.043212e-001 -5.576328e+000 235 234 243
-1.104153e-002 1.520480e+000 -5.915977e+000 161 16 26
-7.113836e-002 1.865499e-001 -5.744834e+000 198 31 51
1.344165e+000 2.071080e-001 -5.581022e+000 188 119 130
1.433928e+000 3.282406e-001 -5.729082e+000 65 8 8
1.274382e+000 1.259749e+000 -5.393432e+000 184 138 151
-2.962686e+000 3.123055e+000 -1.198236e+001 24 22 27
-2.962686e+000 3.123055e+000 -1.198236e+001 24 22 27
-1.259597e+000 -2.885954e+000 -1.250179e+001 63 59 70
-1.322277e-001 7.053599e-001 -5.441433e+000 193 32 49
2.367811e+000 -1.156517e+000 -5.908186e+000 202 197 105
1.185688e+000 1.209050e-001 -5.576271e+000 189 123 137
2.727710e-001 5.183298e-001 -5.426876e+000 230 208 219
-1.204066e-001 5.675378e-001 -5.503952e+000 221 208 222
-1.321487e-001 6.998799e-001 -5.423024e+000 195 34 51
1.197934e+000 1.329116e+000 -5.993078e+000 157 20 30
1.582029e+000 1.452660e+000 -5.433260e+000 168 118 129
8.255971e-001 -4.881499e+000 -1.457447e+001 42 42 51
2.375577e+000 -3.628273e+000 -1.079716e+001 38 34 49
2.375577e+000 -3.628273e+000 -1.079716e+001 38 34 49
3.010630e+000 -2.938941e+000 -9.120613e+000 60 49 64
2.433973e+000 -2.062718e+000 -8.250440e+000 188 174 148
4.793474e-001 -3.220184e+000 -1.301054e+001 105 81 64
2.577746e+000 -3.622611e-001 -5.361655e+000 224 181 193
2.577746e+000 -3.622611e-001 -5.361655e+000 224 181 193
2.672456e+000 -3.201503e+000 -9.970415e+000 53 42 51
2.672456e+000 -3.201503e+000 -9.970415e+000 53 42 51
1.732558e+000 -3.660794e+000 -1.246443e+001 10 10 12
1.732558e+000 -3.660794e+000 -1.246443e+001 10 10 12
2.317628e+000 -1.958471e+000 -8.542560e+000 178 170 140
1.517300e+000 -2.580202e+000 -1.243233e+001 110 83 65
1.383383e+000 -2.525010e+000 -1.242055e+001 18 29 45
2.039591e+000 -2.152476e+000 -1.153757e+001 54 40 42
2.538054e+000 -5.983367e-001 -5.396838e+000 225 192 209
5.586155e-001 1.269839e-001 -5.710957e+000 211 42 80
-9.732972e-001 5.960978e-001 -4.576994e+000 179 225 255
-8.827932e-001 7.640508e-001 -4.535577e+000 225 165 176
-1.032549e+000 7.933722e-001 -4.543508e+000 152 97 120
1.727430e+000 1.427372e+000 -5.472473e+000 69 30 30
6.006065e-001 1.725859e+000 -5.909797e+000 69 1 0
2.325340e+000 -3.898712e+000 -1.094415e+001 84 79 97
2.538869e+000 -3.321644e+000 -1.045884e+001 98 89 106
2.866996e+000 -2.881413e+000 -9.409293e+000 56 43 54
2.715418e+000 -2.874478e+000 -9.871721e+000 59 47 61
2.513102e+000 -2.982413e+000 -1.044468e+001 59 52 64
2.513102e+000 -2.982413e+000 -1.044468e+001 59 52 64
1.572398e+000 -3.214432e+000 -1.304842e+001 81 74 84
1.636662e+000 -2.754959e+000 -1.262157e+001 47 38 45
1.955615e+000 -2.309967e+000 -1.170584e+001 52 42 42
1.923810e+000 -1.163630e+000 -6.828747e+000 203 182 70
2.546111e+000 -6.017613e-001 -5.411927e+000 228 196 213
2.584111e+000 -3.585242e-001 -5.338427e+000 245 190 207
5.463078e-001 -2.820781e-001 -5.697164e+000 123 6 14
5.463078e-001 -2.820781e-001 -5.697164e+000 123 6 14
2.163472e+000 -2.762538e-001 -6.190163e+000 114 69 10
-9.216196e-001 -1.974769e-001 -5.016430e+000 35 44 92
-5.700760e-001 -8.873935e-002 -4.778001e+000 229 178 190
1.215239e+000 1.874288e-001 -5.617023e+000 173 95 107
4.850135e-001 2.258186e-001 -5.690881e+000 124 4 14
2.132957e+000 2.870618e-001 -6.446826e+000 84 49 7
-4.109939e-001 4.275698e-001 -4.641183e+000 207 155 168
2.199497e+000 6.300694e-001 -6.322281e+000 176 139 90
3.692532e-001 5.646846e-001 -5.479427e+000 154 28 45
-6.439750e-001 5.771700e-001 -4.588406e+000 189 126 143
-6.439750e-001 5.771700e-001 -4.588406e+000 189 126 143
-8.138408e-001 5.895944e-001 -4.613783e+000 247 228 240
2.917300e-001 6.981523e-001 -5.344538e+000 219 197 209
4.422917e-001 7.161523e-001 -5.403987e+000 246 224 228
4.422917e-001 7.161523e-001 -5.403987e+000 246 224 228
-6.710204e-001 6.283626e-001 -4.568004e+000 170 104 126
-1.379479e-002 8.121954e-001 -5.525880e+000 175 25 37
-7.591011e-001 6.914283e-001 -4.547503e+000 233 177 193
5.044334e-001 8.697538e-001 -5.590540e+000 127 24 35
-1.074599e+000 7.449501e-001 -4.557359e+000 229 167 180
4.259799e-001 1.151878e+000 -5.574184e+000 155 24 37
1.235378e+000 1.132472e+000 -5.207684e+000 184 132 143
1.533830e+000 1.611144e+000 -5.548000e+000 98 65 48
2.824216e+000 -3.149267e+000 -9.605895e+000 52 45 57
2.435489e+000 -3.409585e+000 -1.064136e+001 105 97 118
2.819210e+000 -2.987173e+000 -9.533519e+000 118 111 128
2.162119e+000 -3.498973e+000 -1.131777e+001 85 77 96
2.098880e+000 -3.434374e+000 -1.144375e+001 39 35 49
2.795252e+000 -2.773879e+000 -9.661078e+000 57 41 47
2.795252e+000 -2.773879e+000 -9.661078e+000 57 41 47
2.398486e+000 -2.885564e+000 -1.077724e+001 57 46 55
1.623520e+000 -3.422058e+000 -1.283264e+001 88 85 103
2.473191e+000 -2.165859e+000 -8.202574e+000 187 177 143
1.682388e+000 -3.050374e+000 -1.263256e+001 54 48 60
2.319571e+000 -2.034413e+000 -8.492059e+000 113 98 80
2.095867e+000 -2.396124e+000 -1.149591e+001 63 47 56
1.942772e+000 -2.232461e+000 -1.190900e+001 61 47 49
1.777764e+000 -2.128234e+000 -1.229264e+001 62 47 49
2.225970e+000 -8.661710e-001 -6.289416e+000 214 191 78
2.178544e+000 -8.740166e-001 -6.348504e+000 216 192 86
2.545371e+000 -6.268955e-001 -5.480477e+000 221 70 104
2.547968e+000 -5.434926e-001 -5.455443e+000 240 180 193
2.079259e+000 -5.554044e-001 -6.530423e+000 228 191 78
2.277049e+000 -4.675935e-001 -6.146582e+000 229 196 57
2.277049e+000 -4.675935e-001 -6.146582e+000 229 196 57
2.222997e+000 -3.531618e-001 -6.197537e+000 98 62 2
2.196547e+000 -3.138636e-001 -6.202534e+000 121 76 14
2.588016e+000 -2.435197e-001 -5.355975e+000 240 192 195
-5.380592e-001 9.526139e-003 -4.694486e+000 218 170 181
-4.723344e-001 1.870698e-001 -4.641724e+000 225 164 172
2.164299e+000 3.014873e-001 -6.428274e+000 176 139 48
-3.764866e-001 4.751230e-001 -4.711520e+000 220 191 199
-1.068313e+000 4.845182e-001 -4.607394e+000 173 160 196
3.756604e-001 6.560712e-001 -5.415494e+000 243 214 219
1.521458e-001 7.045900e-001 -5.446831e+000 71 6 13
-1.015532e+000 6.291748e-001 -4.574089e+000 242 226 244
-9.379222e-001 7.188767e-001 -4.541240e+000 228 165 173
-9.950819e-001 8.058666e-001 -4.558370e+000 157 100 122
7.577483e-002 1.512766e+000 -5.872176e+000 108 2 1
-3.821146e+000 3.878102e+000 -1.159821e+001 147 93 86
2.196491e+000 -3.927780e+000 -1.126618e+001 51 45 59
2.238626e+000 -3.875787e+000 -1.115830e+001 89 87 105
9.756448e-001 -5.001926e+000 -1.448744e+001 49 48 57
2.573747e+000 -3.539887e+000 -1.032799e+001 111 107 131
2.227342e+000 -3.760036e+000 -1.111901e+001 88 85 102
2.687672e+000 -3.356427e+000 -9.998815e+000 59 54 71
2.390945e+000 -3.497903e+000 -1.087723e+001 99 95 118
2.319635e+000 -3.514321e+000 -1.103679e+001 56 46 58
2.603133e+000 -3.250581e+000 -1.023346e+001 63 47 57
2.358573e+000 -3.286685e+000 -1.077897e+001 53 46 61
2.517760e+000 -3.160083e+000 -1.041989e+001 68 58 74
2.143394e+000 -3.405469e+000 -1.141459e+001 88 81 97
1.611888e+000 -3.815567e+000 -1.284900e+001 36 26 32
2.505902e+000 -3.087479e+000 -1.048360e+001 101 93 110
1.962836e+000 -3.479564e+000 -1.191749e+001 52 47 68
1.962836e+000 -3.479564e+000 -1.191749e+001 52 47 68
2.661515e+000 -2.831208e+000 -9.991321e+000 46 34 46
2.084414e+000 -3.269003e+000 -1.163640e+001 90 78 86
2.084414e+000 -3.269003e+000 -1.163640e+001 90 78 86
1.961879e+000 -3.135063e+000 -1.187267e+001 57 49 60
1.960217e+000 -3.055291e+000 -1.183391e+001 89 85 99
1.960217e+000 -3.055291e+000 -1.183391e+001 89 85 99
2.029025e+000 -2.877839e+000 -1.168600e+001 66 59 74
2.029025e+000 -2.877839e+000 -1.168600e+001 66 59 74
2.492286e+000 -2.551029e+000 -1.043154e+001 106 99 115
2.492286e+000 -2.551029e+000 -1.043154e+001 106 99 115
2.403116e+000 -2.574699e+000 -1.063718e+001 64 53 67
2.403116e+000 -2.574699e+000 -1.063718e+001 64 53 67
1.244112e+000 -2.992753e+000 -1.385907e+001 74 67 78
2.366250e+000 -1.152355e+000 -5.904063e+000 197 196 106
2.321383e+000 -2.044489e+000 -1.087615e+001 71 60 79
2.174161e+000 -2.023616e+000 -1.110552e+001 91 79 87
2.174161e+000 -2.023616e+000 -1.110552e+001 91 79 87
2.003944e+000 -2.036150e+000 -1.163282e+001 62 50 55
2.558327e+000 -6.921696e-001 -5.375624e+000 247 138 75
2.591600e+000 -3.007564e-001 -5.323271e+000 234 190 210
2.597404e+000 -2.033599e-001 -5.348808e+000 237 193 207
-5.234879e-001 2.355789e-001 -4.610378e+000 216 162 175
-8.125710e-001 4.652678e-001 -4.593262e+000 181 161 192
-1.224145e-002 5.806571e-001 -5.397527e+000 194 171 186
-1.020322e+000 5.111334e-001 -4.579049e+000 147 197 227
6.615438e-002 5.956924e-001 -5.396005e+000 239 225 235
-8.869885e-001 6.433891e-001 -4.568774e+000 235 199 216
5.277479e-001 8.825498e-001 -5.549600e+000 204 160 177
-7.825158e-001 7.465025e-001 -4.548456e+000 146 87 107
3.753702e-001 9.569876e-001 -5.572277e+000 203 132 150
-8.919712e-001 8.247082e-001 -4.561615e+000 216 161 173
3.845150e-001 1.110650e+000 -5.591970e+000 229 192 212
-3.817920e+000 3.429704e+000 -1.157147e+001 144 79 71
-5.194435e+000 3.474099e+000 -1.129845e+001 128 72 58
-5.194435e+000 3.474099e+000 -1.129845e+001 128 72 58
-5.346697e+000 3.464396e+000 -1.123572e+001 126 72 64
-5.346697e+000 3.464396e+000 -1.123572e+001 126 72 64
-3.237390e+000 3.607310e+000 -1.169515e+001 142 89 80
-3.237390e+000 3.607310e+000 -1.169515e+001 142 89 80
-4.775089e+000 3.661839e+000 -1.134468e+001 134 72 65
-4.726169e+000 3.742368e+000 -1.129713e+001 135 75 58
-3.423525e+000 3.874157e+000 -1.166337e+001 143 85 86
6.629914e-001 2.789839e-001 -5.528306e+000 210 33 57
6.629914e-001 2.789839e-001 -5.528306e+000 210 33 57
-8.307459e-001 5.678539e-001 -4.575185e+000 161 183 219
2.157848e+000 1.132988e+000 -5.949862e+000 212 176 116
7.740707e-001 7.445911e-002 -5.716322e+000 238 231 239
9.188605e-001 6.382338e-001 -5.532611e+000 147 17 25
-3.113704e+000 3.652196e+000 -1.431918e+001 28 25 33
-2.905651e+000 3.909878e+000 -1.618292e+001 96 85 103
2.523917e+000 1.862811e+000 -5.223341e+000 173 157 104
1.937119e+000 -1.048083e+000 -6.778391e+000 203 178 60
9.123439e-001 -7.762446e-002 -5.613470e+000 51 9 18
2.747356e-001 1.274498e-001 -5.612541e+000 203 42 84
6.554590e-001 1.949783e-001 -5.672375e+000 115 4 13
-6.103309e-001 4.012688e-001 -4.607908e+000 212 160 172
-8.360490e-001 5.158502e-001 -4.570469e+000 188 226 254
-9.779802e-001 6.555374e-001 -4.580856e+000 243 231 243
2.026895e+000 -2.281079e+000 -1.170834e+001 104 96 105
1.806145e+000 -1.768860e+000 -1.226298e+001 75 54 61
-8.928496e-001 -1.830458e-001 -5.045593e+000 251 253 255
8.458559e-001 4.670208e-003 -5.686165e+000 222 196 212
1.084326e+000 6.137622e-001 -5.476374e+000 102 6 13
-1.052021e+000 7.263197e-001 -4.575196e+000 173 111 132
5.404487e-001 9.596894e-001 -5.553654e+000 153 14 28
-8.236406e-001 9.454095e-001 -4.609486e+000 157 123 142
9.863713e-001 1.629461e+000 -5.742697e+000 140 25 36
2.956749e+000 -3.189938e+000 -9.301569e+000 123 117 137
2.956749e+000 -3.189938e+000 -9.301569e+000 123 117 137
2.718828e+000 -3.299050e+000 -9.916507e+000 117 111 132
2.282169e+000 -3.023301e+000 -1.103664e+001 108 101 118
2.553986e+000 -2.609712e+000 -1.023064e+001 67 55 65
2.553986e+000 -2.609712e+000 -1.023064e+001 67 55 65
2.317978e+000 -2.369174e+000 -1.096946e+001 73 53 61
2.158236e+000 -9.492152e-001 -6.351141e+000 211 187 86
2.220667e+000 -7.288952e-001 -6.244702e+000 162 136 39
2.180280e+000 -6.950356e-001 -6.319119e+000 164 169 118
2.264125e+000 -4.953100e-001 -6.132553e+000 225 194 63
2.264125e+000 -4.953100e-001 -6.132553e+000 225 194 63
1.430493e+000 2.142562e-001 -5.553588e+000 75 11 12
-5.301306e-001 2.562281e-001 -4.592372e+000 226 174 184
-8.753455e-001 3.866166e-001 -4.624199e+000 245 237 249
2.486721e+000 -3.468521e+000 -1.047394e+001 51 47 63
2.977760e+000 -3.012672e+000 -9.187665e+000 104 99 117
2.918456e+000 -3.016665e+000 -9.347492e+000 115 100 121
2.784065e+000 -3.108710e+000 -9.712681e+000 32 30 45
2.632843e+000 -3.178364e+000 -1.018373e+001 115 109 126
2.348122e+000 -3.283258e+000 -1.090680e+001 113 109 127
2.397313e+000 -2.813800e+000 -1.072955e+001 116 108 123
2.517917e+000 -2.457173e+000 -1.027941e+001 112 104 121
2.050564e+000 -2.005373e+000 -1.158729e+001 107 91 101
2.050564e+000 -2.005373e+000 -1.158729e+001 107 91 101
2.543884e+000 -5.749535e-001 -5.422434e+000 208 105 132
2.543884e+000 -5.749535e-001 -5.422434e+000 208 105 132
2.552831e+000 -5.257231e-001 -5.412598e+000 209 98 134
2.568324e+000 -4.472364e-001 -5.402533e+000 208 95 122
2.287222e+000 -4.518294e-001 -6.081366e+000 167 135 16
2.309066e+000 -2.408786e-002 -6.023608e+000 167 136 16
2.309066e+000 -2.408786e-002 -6.023608e+000 167 136 16
9.133120e-001 2.672923e-002 -5.634437e+000 223 194 208
2.512583e+000 8.568466e-002 -5.499853e+000 184 158 92
1.915567e-001 6.721098e-001 -5.403919e+000 187 156 176
-7.507963e-001 9.227826e-001 -4.619949e+000 132 93 111
-2.447320e+000 3.105289e+000 -1.182743e+001 91 86 95
-2.447320e+000 3.105289e+000 -1.182743e+001 91 86 95
2.112517e+000 5.170984e-001 -6.337388e+000 149 88 70
-4.611406e-001 -3.060628e-001 -5.339644e+000 158 131 133
4.937641e-001 1.331516e+000 -5.763836e+000 18 7 6
-2.446832e+000 1.707082e+000 -1.220570e+001 124 104 114
1.900975e+000 -1.137920e+000 -6.769395e+000 217 202 91
-4.862319e-001 -1.545901e-001 -5.020839e+000 248 206 217
1.350843e+000 1.235953e-001 -5.462692e+000 131 25 22
-9.394669e-001 1.999716e-001 -4.632855e+000 223 160 169
2.364889e-001 8.300477e-001 -5.543294e+000 231 42 72
1.431585e+000 1.338740e+000 -5.291360e+000 201 144 155
1.159392e+000 6.107316e-002 -5.445869e+000 134 59 62
9.865485e-001 5.914165e-002 -5.533492e+000 74 10 10
7.825700e-001 -2.246298e+000 -1.220445e+001 150 127 126
2.581023e+000 -5.488991e-001 -5.366508e+000 255 62 100
-8.050381e-001 3.087513e-001 -4.611611e+000 217 151 166
1.933202e+000 -1.063543e+000 -6.770651e+000 234 210 88
2.230096e+000 -6.305461e-001 -6.148562e+000 243 216 79
2.279840e+000 -5.297245e-001 -6.096823e+000 188 157 33
2.279840e+000 -5.297245e-001 -6.096823e+000 188 157 33
1.237034e+000 -3.368527e-001 -5.334359e+000 195 133 135
-1.075933e+000 2.654799e-001 -4.692536e+000 233 171 185
-5.379214e-001 3.485167e-001 -4.598480e+000 187 125 131
-5.779849e-001 4.171583e-001 -4.597007e+000 149 90 108
-9.416864e-001 8.114263e-001 -4.555747e+000 184 119 134
2.171191e+000 -8.292988e-001 -6.303618e+000 240 219 94
2.151881e+000 -8.392605e-001 -6.355177e+000 185 193 135
2.151881e+000 -8.392605e-001 -6.355177e+000 185 193 135
2.245662e+000 -7.496583e-001 -6.179632e+000 197 169 49
-9.465741e-001 2.394409e-001 -4.664679e+000 255 216 220
2.616949e+000 -3.022676e+000 -1.013047e+001 140 131 150
2.531923e+000 -2.658576e+000 -1.029519e+001 128 115 128
2.376594e+000 -2.776619e+000 -1.076673e+001 80 68 82
2.319089e+000 -2.767238e+000 -1.084981e+001 84 72 87
-1.216594e+000 -2.865127e+000 -1.298906e+001 85 46 56
2.224656e+000 -8.810319e-001 -6.213401e+000 200 173 44
2.184841e+000 -8.657054e-001 -6.278188e+000 196 170 45
1.953811e+000 -2.101733e+000 -1.184305e+001 74 49 49
2.267112e+000 -3.678406e-001 -6.138500e+000 206 172 32
-7.517241e-001 -2.159375e-001 -5.036392e+000 250 240 251
-9.848142e-001 -2.327525e-001 -5.060636e+000 155 201 235
-9.940625e-001 -1.846373e-001 -5.012941e+000 119 141 190
1.245574e+000 -9.976274e-002 -5.340905e+000 236 173 181
-5.017556e-001 -3.710006e-002 -4.767756e+000 255 209 215
9.050151e-001 1.371562e-001 -5.707911e+000 150 41 66
-7.276238e-001 3.869761e-001 -4.613992e+000 202 131 146
3.258446e-001 6.475314e-001 -5.384433e+000 153 104 124
3.405616e-001 6.727195e-001 -5.395857e+000 247 224 229
-1.122950e+000 8.234765e-001 -4.600117e+000 249 196 203
1.233590e-002 2.721226e-002 1.704521e-001 0 255 0
1.232540e-002 2.694157e-002 1.204528e-001 255 255 0
-6.522056e-001 7.358564e-001 5.387567e-001 255 0 0
-6.492412e-001 7.331233e-001 4.889196e-001 255 255 0
-1.266146e+000 2.093449e-001 -1.926481e-001 0 255 0
-1.254566e+000 2.076811e-001 -2.412603e-001 255 255 0
