ply
format ascii 1.0
element face 0
property list uchar int vertex_indices
element vertex 500
property float x
property float y
property float z
property uchar diffuse_red
property uchar diffuse_green
property uchar diffuse_blue
end_header
1.892516e+000 -1.124000e+000 -6.771538e+000 203 182 70
2.169402e+000 -8.611831e-001 -6.227894e+000 221 195 83
2.169402e+000 -8.611831e-001 -6.227894e+000 221 195 83
2.188771e+000 -8.511093e-001 -6.190272e+000 177 153 51
2.188800e+000 -7.506201e-001 -6.206417e+000 214 189 76
2.177775e+000 -7.896592e-001 -6.211876e+000 215 192 85
2.504483e+000 -4.652078e-001 -5.387049e+000 226 181 185
2.151075e+000 -9.561230e-001 -6.270798e+000 212 189 70
2.197425e+000 -6.749000e-001 -6.176869e+000 215 190 73
1.896689e+000 -1.085761e+000 -6.780497e+000 41 28 0
1.896689e+000 -1.085761e+000 -6.780497e+000 41 28 0
2.516777e+000 -3.536136e-001 -5.386872e+000 234 192 195
2.508949e+000 -4.029926e-001 -5.402972e+000 240 179 181
-8.445153e-001 4.995135e-001 -4.572979e+000 22 27 46
-8.430437e-001 4.999260e-001 -4.572651e+000 22 27 46
-8.430437e-001 4.999260e-001 -4.572651e+000 22 27 46
-8.113648e-001 -2.368846e-001 -5.049445e+000 23 24 28
8.825101e-001 5.134846e-002 -5.661499e+000 210 177 196
8.838336e-002 3.364050e-001 -5.529882e+000 144 19 27
-8.891011e-001 6.120995e-001 -4.595495e+000 201 211 244
1.045555e+000 -9.565127e-003 -5.487835e+000 173 109 126
1.013494e+000 5.540378e-001 -5.519784e+000 213 194 208
1.013494e+000 5.540378e-001 -5.519784e+000 213 194 208
3.896903e-001 4.768391e-001 -5.400992e+000 73 2 3
-8.282084e-001 3.748475e-001 -4.627509e+000 190 201 238
4.793305e-001 9.700706e-001 -5.563941e+000 163 18 29
2.323471e+000 -1.112711e+000 -5.880169e+000 202 197 105
3.287011e-002 4.341228e-001 -5.497194e+000 224 55 95
3.287011e-002 4.341228e-001 -5.497194e+000 224 55 95
8.426249e-001 5.469255e-001 -5.520490e+000 95 0 2
-5.379514e-001 4.277381e-001 -4.648386e+000 108 54 70
1.875087e-001 6.312180e-001 -5.416527e+000 218 203 221
-8.916470e-001 4.993446e-001 -4.553325e+000 17 20 27
4.237044e-001 1.059784e+000 -5.570041e+000 171 150 172
2.504483e+000 -4.652078e-001 -5.387049e+000 226 181 185
9.718490e-001 1.527642e-001 -5.718779e+000 99 3 5
-4.535199e-001 2.989765e-001 -4.596777e+000 156 98 112
1.052060e+000 6.411774e-001 -5.519054e+000 45 10 7
1.483367e-001 5.599559e-001 -5.399517e+000 82 11 26
-5.532515e-001 4.699905e-001 -4.637800e+000 235 181 194
-9.314889e-001 4.500678e-001 -4.598675e+000 183 230 255
9.686207e-001 -2.422702e-002 -5.617043e+000 66 13 22
1.246973e+000 8.905365e-002 -5.518949e+000 95 35 39
1.125488e+000 9.538399e-002 -5.572894e+000 172 101 113
7.345592e-001 1.605762e-001 -5.680815e+000 111 13 20
2.070794e+000 3.333072e-001 -6.433173e+000 147 111 51
9.238568e-001 5.905285e-001 -5.515972e+000 104 11 16
-5.946366e-002 5.913845e-001 -5.411221e+000 106 9 21
-8.551174e-001 4.680265e-001 -4.587639e+000 255 254 254
-8.650751e-001 7.424797e-001 -4.540129e+000 224 166 176
-8.974027e-001 7.406544e-001 -4.547177e+000 227 167 179
-1.003510e+000 7.391039e-001 -4.554728e+000 133 74 96
4.535206e-001 1.107937e+000 -5.562811e+000 161 21 32
1.584119e+000 1.254349e+000 -5.309298e+000 69 31 28
1.584119e+000 1.254349e+000 -5.309298e+000 69 31 28
2.691748e+000 -2.838496e+000 -9.843400e+000 59 47 61
2.294375e+000 -2.233847e+000 -1.083933e+001 121 117 134
9.288658e-001 -3.594149e-002 -5.654127e+000 173 134 153
2.112870e+000 5.861535e-001 -6.301486e+000 111 64 25
-8.349632e-001 4.036570e-001 -4.586222e+000 165 216 253
-9.561162e-001 4.214632e-001 -4.584530e+000 168 157 198
-5.969497e-001 6.012599e-001 -4.567261e+000 170 104 126
-8.888154e-001 7.095260e-001 -4.534697e+000 174 107 127
-8.888154e-001 7.095260e-001 -4.534697e+000 174 107 127
1.700282e+000 1.376861e+000 -5.456684e+000 69 30 30
2.978236e+000 -2.993702e+000 -9.132614e+000 56 47 63
2.519402e+000 -2.892947e+000 -1.025826e+001 103 99 121
2.269271e+000 -3.002786e+000 -1.103521e+001 108 101 118
1.751891e+000 -3.383524e+000 -1.255922e+001 97 90 106
2.608743e+000 -2.565660e+000 -1.007203e+001 119 113 129
2.383737e+000 -2.549821e+000 -1.061569e+001 64 53 67
2.295965e+000 -2.349409e+000 -1.095049e+001 73 53 61
2.249032e+000 -2.355998e+000 -1.100960e+001 124 120 134
2.249032e+000 -2.355998e+000 -1.100960e+001 124 120 134
2.490875e+000 -5.691527e-001 -5.458084e+000 240 183 194
2.509093e+000 -5.351673e-001 -5.397595e+000 243 196 214
2.517028e+000 -4.522352e-001 -5.376125e+000 234 171 187
2.193003e+000 -5.815852e-001 -6.181566e+000 177 147 41
2.520704e+000 -4.001649e-001 -5.346741e+000 237 187 201
9.754465e-001 1.381878e-002 -5.618028e+000 171 124 141
-4.801338e-001 -3.125894e-002 -4.738049e+000 226 178 187
-4.318789e-001 8.860275e-002 -4.655962e+000 157 101 112
-4.318789e-001 8.860275e-002 -4.655962e+000 157 101 112
-8.692614e-001 8.173830e-002 -4.619850e+000 215 151 168
-4.390539e-001 2.451995e-001 -4.608618e+000 157 99 111
1.362145e-001 5.880271e-001 -5.381856e+000 233 218 229
1.639865e-001 6.070164e-001 -5.381740e+000 229 219 231
-8.413384e-001 6.260267e-001 -4.570247e+000 241 217 230
3.985586e-001 9.202092e-001 -5.550474e+000 203 132 150
-8.464399e-001 7.130392e-001 -4.536787e+000 178 107 123
-9.258937e-001 7.241190e-001 -4.536082e+000 232 172 179
4.542635e-001 1.030949e+000 -5.561307e+000 151 23 55
2.728684e+000 -3.274592e+000 -9.771599e+000 111 102 121
2.418733e+000 -3.586903e+000 -1.065776e+001 100 95 113
2.514791e+000 -3.432557e+000 -1.042578e+001 114 111 129
2.530338e+000 -3.100864e+000 -1.033466e+001 117 106 126
2.429550e+000 -2.883115e+000 -1.055657e+001 57 46 60
2.074198e+000 -2.198177e+000 -1.141844e+001 107 92 111
1.881121e+000 -2.365019e+000 -1.208668e+001 97 86 99
2.180790e+000 -7.904287e-001 -6.217970e+000 215 192 85
2.500359e+000 -4.799373e-001 -5.419992e+000 234 189 195
-7.712328e-002 5.627308e-001 -5.378207e+000 209 176 193
1.566623e+000 1.041707e+000 -5.220617e+000 159 96 109
5.753741e-001 9.697329e-001 -5.574050e+000 212 136 155
2.537920e-003 5.060144e-001 -5.465340e+000 243 238 244
1.968520e+000 8.081029e-001 -6.265241e+000 193 133 142
2.088651e+000 -6.149932e-001 -6.344270e+000 219 186 70
-4.714704e-002 2.925038e-001 -5.554620e+000 235 234 243
2.473980e-002 1.465075e+000 -5.885400e+000 161 16 26
-3.030051e-002 1.791047e-001 -5.719536e+000 198 31 51
1.333490e+000 2.009415e-001 -5.568075e+000 188 119 130
1.419860e+000 3.177159e-001 -5.712664e+000 65 8 8
1.264750e+000 1.213451e+000 -5.382064e+000 184 138 151
-2.997367e+000 3.134440e+000 -1.214188e+001 24 22 27
-2.997367e+000 3.134440e+000 -1.214188e+001 24 22 27
-1.262931e+000 -2.899634e+000 -1.255402e+001 63 59 70
-9.128754e-002 6.771632e-001 -5.438172e+000 193 32 49
2.324896e+000 -1.114115e+000 -5.883609e+000 202 197 105
1.180875e+000 1.177292e-001 -5.562800e+000 189 123 137
3.020297e-001 4.987448e-001 -5.411656e+000 230 208 219
-7.654878e-002 5.455590e-001 -5.483230e+000 221 208 222
-8.744455e-002 6.726115e-001 -5.403732e+000 195 34 51
1.190996e+000 1.283159e+000 -5.968485e+000 157 20 30
1.561083e+000 1.400188e+000 -5.421012e+000 168 118 129
8.172546e-001 -4.939629e+000 -1.472335e+001 42 42 51
2.376565e+000 -3.617399e+000 -1.083849e+001 38 34 49
2.376565e+000 -3.617399e+000 -1.083849e+001 38 34 49
2.980846e+000 -2.892418e+000 -9.088244e+000 60 49 64
2.402855e+000 -2.016707e+000 -8.203717e+000 188 174 148
4.734061e-001 -3.236648e+000 -1.308538e+001 105 81 64
2.524147e+000 -3.453508e-001 -5.352525e+000 224 181 193
2.524147e+000 -3.453508e-001 -5.352525e+000 224 181 193
2.657980e+000 -3.171836e+000 -9.969709e+000 53 42 51
2.651660e+000 -3.162999e+000 -9.945006e+000 53 42 51
1.727500e+000 -3.663897e+000 -1.251030e+001 10 10 12
1.740422e+000 -3.691834e+000 -1.259866e+001 10 10 12
2.289886e+000 -1.917830e+000 -8.496958e+000 178 170 140
1.511119e+000 -2.584697e+000 -1.248468e+001 110 83 65
1.377436e+000 -2.529735e+000 -1.247271e+001 18 29 45
2.028618e+000 -2.145495e+000 -1.155625e+001 54 40 42
2.489920e+000 -5.737532e-001 -5.392681e+000 225 192 209
5.765091e-001 1.225918e-001 -5.691382e+000 211 42 80
-8.854445e-001 5.704505e-001 -4.572466e+000 179 225 255
-7.949558e-001 7.317263e-001 -4.526557e+000 225 165 176
-9.411409e-001 7.591059e-001 -4.537977e+000 152 97 120
1.701336e+000 1.376434e+000 -5.459512e+000 69 30 30
6.143195e-001 1.664328e+000 -5.882497e+000 69 1 0
2.315090e+000 -3.872820e+000 -1.093996e+001 84 79 97
2.520400e+000 -3.285567e+000 -1.043153e+001 98 89 106
2.839418e+000 -2.838305e+000 -9.376559e+000 56 43 54
2.691858e+000 -2.837435e+000 -9.843927e+000 59 47 61
2.495027e+000 -2.952646e+000 -1.042711e+001 59 52 64
2.495027e+000 -2.952646e+000 -1.042711e+001 59 52 64
1.567415e+000 -3.228563e+000 -1.312532e+001 81 74 84
1.630675e+000 -2.761817e+000 -1.268144e+001 47 38 45
1.945890e+000 -2.304329e+000 -1.172958e+001 52 42 42
1.897689e+000 -1.127564e+000 -6.789681e+000 203 182 70
2.494182e+000 -5.762569e-001 -5.400680e+000 228 196 213
2.530172e+000 -3.416702e-001 -5.329801e+000 245 190 207
5.653295e-001 -2.714068e-001 -5.677807e+000 123 6 14
5.653295e-001 -2.714068e-001 -5.677807e+000 123 6 14
2.126367e+000 -2.651902e-001 -6.163763e+000 114 69 10
-8.404857e-001 -1.896759e-001 -5.001414e+000 35 44 92
-5.013035e-001 -8.447006e-002 -4.774752e+000 229 178 190
1.209248e+000 1.817850e-001 -5.602751e+000 173 95 107
5.055397e-001 2.176867e-001 -5.671226e+000 124 4 14
2.097253e+000 2.790134e-001 -6.417659e+000 84 49 7
-3.483781e-001 4.101335e-001 -4.642857e+000 207 155 168
2.160923e+000 6.108708e-001 -6.295127e+000 176 139 90
3.944833e-001 5.435106e-001 -5.463285e+000 154 28 45
-5.708354e-001 5.528277e-001 -4.588229e+000 189 126 143
-5.708354e-001 5.528277e-001 -4.588229e+000 189 126 143
-7.334747e-001 5.645058e-001 -4.610418e+000 247 228 240
3.203881e-001 6.714616e-001 -5.330998e+000 219 197 209
4.648145e-001 6.891128e-001 -5.389782e+000 246 224 228
4.648145e-001 6.891128e-001 -5.389782e+000 246 224 228
-5.965332e-001 6.016924e-001 -4.567878e+000 170 104 126
2.548965e-002 7.810020e-001 -5.504809e+000 175 25 37
-6.805468e-001 6.617958e-001 -4.546498e+000 233 177 193
5.237036e-001 8.374306e-001 -5.572082e+000 127 24 35
-9.820881e-001 7.125059e-001 -4.551047e+000 229 167 180
4.478652e-001 1.108699e+000 -5.554477e+000 155 24 37
1.227325e+000 1.090136e+000 -5.201418e+000 184 132 143
1.514582e+000 1.553371e+000 -5.531924e+000 98 65 48
2.797494e+000 -3.103570e+000 -9.568687e+000 52 45 57
2.419449e+000 -3.379230e+000 -1.062520e+001 105 97 118
2.811038e+000 -2.964685e+000 -9.560930e+000 118 111 128
2.152212e+000 -3.480529e+000 -1.132198e+001 85 77 96
2.097728e+000 -3.432508e+000 -1.149516e+001 39 35 49
2.769130e+000 -2.735085e+000 -9.630377e+000 57 41 47
2.769130e+000 -2.735085e+000 -9.630377e+000 57 41 47
2.382742e+000 -2.861708e+000 -1.076774e+001 57 46 55
1.618612e+000 -3.432307e+000 -1.289700e+001 88 85 103
2.441459e+000 -2.117222e+000 -8.155764e+000 187 177 143
1.676696e+000 -3.056998e+000 -1.269042e+001 54 48 60
2.291789e+000 -1.991669e+000 -8.445942e+000 113 98 80
2.084633e+000 -2.386842e+000 -1.151123e+001 63 47 56
1.933698e+000 -2.230010e+000 -1.194166e+001 61 47 49
1.770286e+000 -2.131506e+000 -1.234283e+001 62 47 49
2.188159e+000 -8.357599e-001 -6.258982e+000 214 191 78
2.142501e+000 -8.437389e-001 -6.317221e+000 216 192 86
2.493830e+000 -6.007669e-001 -5.467550e+000 221 70 104
2.496017e+000 -5.202719e-001 -5.443350e+000 240 180 193
2.046597e+000 -5.365165e-001 -6.498184e+000 228 191 78
2.236393e+000 -4.497868e-001 -6.120220e+000 229 196 57
2.236393e+000 -4.497868e-001 -6.120220e+000 229 196 57
2.184102e+000 -3.394525e-001 -6.170693e+000 98 62 2
2.158472e+000 -3.015268e-001 -6.175768e+000 121 76 14
2.533804e+000 -2.309491e-001 -5.347216e+000 240 192 195
-4.699795e-001 9.846049e-003 -4.694217e+000 218 170 181
-4.067976e-001 1.799404e-001 -4.643551e+000 225 164 172
2.116814e+000 2.931917e-001 -6.367370e+000 176 139 48
-3.160095e-001 4.557251e-001 -4.711071e+000 220 191 199
-9.765431e-001 4.637170e-001 -4.601110e+000 173 160 196
4.008013e-001 6.312858e-001 -5.400836e+000 243 214 219
1.856722e-001 6.776294e-001 -5.429501e+000 71 6 13
-9.257886e-001 6.020012e-001 -4.568855e+000 242 226 244
-8.513258e-001 6.877510e-001 -4.537704e+000 228 165 173
-9.061946e-001 7.708147e-001 -4.552858e+000 157 100 122
1.086724e-001 1.457367e+000 -5.842440e+000 108 2 1
-3.871628e+000 3.904985e+000 -1.176407e+001 147 93 86
2.187992e+000 -3.907523e+000 -1.126974e+001 51 45 59
2.229351e+000 -3.853625e+000 -1.115890e+001 89 87 105
9.690881e-001 -5.058944e+000 -1.463073e+001 49 48 57
2.557507e+000 -3.504898e+000 -1.031017e+001 111 107 131
2.217435e+000 -3.737248e+000 -1.111784e+001 88 85 102
2.671902e+000 -3.323310e+000 -9.990744e+000 59 54 71
2.369697e+000 -3.459713e+000 -1.083469e+001 99 95 118
2.293115e+000 -3.468627e+000 -1.096792e+001 56 46 58
2.584470e+000 -3.215626e+000 -1.021243e+001 63 47 57
2.344515e+000 -3.259964e+000 -1.076862e+001 53 46 61
2.500244e+000 -3.128515e+000 -1.040178e+001 68 58 74
2.133628e+000 -3.389130e+000 -1.142207e+001 88 81 97
1.610343e+000 -3.831620e+000 -1.292794e+001 36 26 32
2.488484e+000 -3.057456e+000 -1.046683e+001 101 93 110
1.955652e+000 -3.472238e+000 -1.194222e+001 52 47 68
1.955652e+000 -3.472238e+000 -1.194222e+001 52 47 68
2.638951e+000 -2.796207e+000 -9.965108e+000 46 34 46
2.075352e+000 -3.257180e+000 -1.165187e+001 90 78 86
2.075352e+000 -3.257180e+000 -1.165187e+001 90 78 86
1.953849e+000 -3.127979e+000 -1.189734e+001 57 49 60
1.951937e+000 -3.047852e+000 -1.185752e+001 89 85 99
1.951937e+000 -3.047852e+000 -1.185752e+001 89 85 99
2.019629e+000 -2.868688e+000 -1.170518e+001 66 59 74
2.019629e+000 -2.868688e+000 -1.170518e+001 66 59 74
2.472961e+000 -2.525159e+000 -1.041444e+001 106 99 115
2.472961e+000 -2.525159e+000 -1.041444e+001 106 99 115
2.385818e+000 -2.551514e+000 -1.062490e+001 64 53 67
2.385818e+000 -2.551514e+000 -1.062490e+001 64 53 67
1.238029e+000 -3.021220e+000 -1.398357e+001 74 67 78
2.323362e+000 -1.110068e+000 -5.879603e+000 197 196 106
2.305105e+000 -2.029765e+000 -1.087337e+001 71 60 79
2.160282e+000 -2.012058e+000 -1.110998e+001 91 79 87
2.160282e+000 -2.012058e+000 -1.110998e+001 91 79 87
1.993425e+000 -2.031186e+000 -1.165603e+001 62 50 55
2.506271e+000 -6.632910e-001 -5.365249e+000 247 138 75
2.537214e+000 -2.859788e-001 -5.315106e+000 234 190 210
2.542784e+000 -1.922431e-001 -5.340289e+000 237 193 207
-4.554994e-001 2.263172e-001 -4.612488e+000 216 162 175
-7.319332e-001 4.456242e-001 -4.591195e+000 181 161 192
2.812387e-002 5.581851e-001 -5.380400e+000 194 171 186
-9.303495e-001 4.891920e-001 -4.574257e+000 147 197 227
1.034541e-001 5.727459e-001 -5.379514e+000 239 225 235
-8.029244e-001 6.157506e-001 -4.565541e+000 235 199 216
5.462699e-001 8.496596e-001 -5.532182e+000 204 160 177
-7.029777e-001 7.143857e-001 -4.546762e+000 146 87 107
3.994193e-001 9.210675e-001 -5.552877e+000 203 132 150
-8.077561e-001 7.889757e-001 -4.557421e+000 216 161 173
4.079193e-001 1.069002e+000 -5.571539e+000 229 192 212
-3.861601e+000 3.445931e+000 -1.172436e+001 144 79 71
-5.258540e+000 3.493993e+000 -1.143264e+001 128 72 58
-5.258540e+000 3.493993e+000 -1.143264e+001 128 72 58
-5.410147e+000 3.482804e+000 -1.136064e+001 126 72 64
-5.410147e+000 3.482804e+000 -1.136064e+001 126 72 64
-3.274933e+000 3.625080e+000 -1.185308e+001 142 89 80
-3.274933e+000 3.625080e+000 -1.185308e+001 142 89 80
-4.834677e+000 3.684541e+000 -1.148861e+001 134 72 65
-4.783476e+000 3.765075e+000 -1.143762e+001 135 75 58
-3.467200e+000 3.898915e+000 -1.182904e+001 143 85 86
6.772937e-001 2.691020e-001 -5.512116e+000 210 33 57
6.772937e-001 2.691020e-001 -5.512116e+000 210 33 57
-7.492051e-001 5.435763e-001 -4.572902e+000 161 183 219
2.120329e+000 1.096794e+000 -5.933163e+000 212 176 116
7.839649e-001 7.230070e-002 -5.695926e+000 238 231 239
9.232859e-001 6.151956e-001 -5.518944e+000 147 17 25
-3.205451e+000 3.713425e+000 -1.464494e+001 28 25 33
-3.032831e+000 4.008947e+000 -1.667466e+001 96 85 103
2.476187e+000 1.803367e+000 -5.221443e+000 173 157 104
1.911422e+000 -1.015953e+000 -6.745057e+000 203 178 60
9.177351e-001 -7.369289e-002 -5.596982e+000 51 9 18
3.034340e-001 1.227338e-001 -5.588983e+000 203 42 84
6.696397e-001 1.881610e-001 -5.651986e+000 115 4 13
-5.385197e-001 3.846496e-001 -4.607181e+000 212 160 172
-7.541258e-001 4.938511e-001 -4.568234e+000 188 226 254
-8.902266e-001 6.272545e-001 -4.576660e+000 243 231 243
2.012988e+000 -2.271624e+000 -1.171110e+001 104 96 105
1.792169e+000 -1.767484e+000 -1.227407e+001 75 54 61
-8.122447e-001 -1.753489e-001 -5.024527e+000 251 253 255
8.533588e-001 5.276997e-003 -5.667276e+000 222 196 212
1.082860e+000 5.919857e-001 -5.465559e+000 102 6 13
-9.601015e-001 6.890238e-001 -4.538284e+000 173 111 132
5.660342e-001 9.309432e-001 -5.575571e+000 153 14 28
-7.436156e-001 9.049993e-001 -4.606973e+000 157 123 142
9.872342e-001 1.571710e+000 -5.723545e+000 140 25 36
2.920976e+000 -3.135816e+000 -9.248352e+000 123 117 137
2.920976e+000 -3.135816e+000 -9.248352e+000 123 117 137
2.700232e+000 -3.262369e+000 -9.899911e+000 117 111 132
2.268313e+000 -3.001965e+000 -1.103092e+001 108 101 118
2.534264e+000 -2.581980e+000 -1.021446e+001 67 55 65
2.534264e+000 -2.581980e+000 -1.021446e+001 67 55 65
2.301331e+000 -2.351582e+000 -1.096187e+001 73 53 61
2.123081e+000 -9.171870e-001 -6.322239e+000 211 187 86
2.184478e+000 -7.035866e-001 -6.221395e+000 162 136 39
2.145550e+000 -6.712248e-001 -6.294809e+000 164 169 118
2.225741e+000 -4.770848e-001 -6.111938e+000 225 194 63
2.225741e+000 -4.770848e-001 -6.111938e+000 225 194 63
1.417037e+000 2.081045e-001 -5.542849e+000 75 11 12
-4.614477e-001 2.458952e-001 -4.589131e+000 226 174 184
-7.919864e-001 3.702687e-001 -4.619177e+000 245 237 249
2.472639e+000 -3.439221e+000 -1.046616e+001 51 47 63
2.952658e+000 -2.970027e+000 -9.167010e+000 104 99 117
2.894478e+000 -2.975644e+000 -9.327194e+000 115 100 121
2.758474e+000 -3.066989e+000 -9.681356e+000 32 30 45
2.615106e+000 -3.145799e+000 -1.016933e+001 115 109 126
2.334733e+000 -3.259106e+000 -1.090044e+001 113 109 127
2.381137e+000 -2.790095e+000 -1.071940e+001 116 108 123
2.498020e+000 -2.431372e+000 -1.026314e+001 112 104 121
2.035472e+000 -1.996440e+000 -1.158660e+001 107 91 101
2.035472e+000 -1.996440e+000 -1.158660e+001 107 91 101
2.492509e+000 -5.505240e-001 -5.412004e+000 208 105 132
2.492509e+000 -5.505240e-001 -5.412004e+000 208 105 132
2.501014e+000 -5.030138e-001 -5.402540e+000 209 98 134
2.515814e+000 -4.273037e-001 -5.392959e+000 208 95 122
2.247820e+000 -4.348134e-001 -6.061702e+000 167 135 16
2.268138e+000 -2.117623e-002 -6.006132e+000 167 136 16
2.268138e+000 -2.117623e-002 -6.006132e+000 167 136 16
9.184858e-001 2.668930e-002 -5.617625e+000 223 194 208
2.461941e+000 8.609851e-002 -5.490620e+000 184 158 92
2.238732e-001 6.460016e-001 -5.386203e+000 187 156 176
-6.739695e-001 8.834428e-001 -4.617885e+000 132 93 111
-2.455962e+000 3.095209e+000 -1.190174e+001 91 86 95
-2.455962e+000 3.095209e+000 -1.190174e+001 91 86 95
2.080924e+000 5.014872e-001 -6.320017e+000 149 88 70
-4.016626e-001 -2.927678e-001 -5.310477e+000 158 131 133
5.126729e-001 1.282707e+000 -5.741980e+000 18 7 6
-2.452367e+000 1.690934e+000 -1.225808e+001 124 104 114
1.877558e+000 -1.103612e+000 -6.737636e+000 217 202 91
-4.231094e-001 -1.468610e-001 -5.002642e+000 248 206 217
1.339712e+000 1.207751e-001 -5.452154e+000 131 25 22
-8.531276e-001 1.920666e-001 -4.625993e+000 223 160 169
2.661912e-001 7.981966e-001 -5.523421e+000 231 42 72
1.414738e+000 1.289472e+000 -5.280679e+000 201 144 155
1.155226e+000 6.042556e-002 -5.434390e+000 134 59 62
9.886554e-001 5.821119e-002 -5.518628e+000 74 10 10
7.714395e-001 -2.234987e+000 -1.217560e+001 150 127 126
2.524686e+000 -5.243104e-001 -5.351681e+000 255 62 100
-7.245860e-001 2.961159e-001 -4.607678e+000 217 151 166
1.908895e+000 -1.031537e+000 -6.739759e+000 234 210 88
2.199131e+000 -6.101005e-001 -6.139335e+000 243 216 79
2.242436e+000 -5.107608e-001 -6.079026e+000 188 157 33
2.242436e+000 -5.107608e-001 -6.079026e+000 188 157 33
1.230377e+000 -3.216880e-001 -5.324690e+000 195 133 135
-9.843655e-001 2.544346e-001 -4.682348e+000 233 171 185
-4.696904e-001 3.344062e-001 -4.594005e+000 187 125 131
-5.074048e-001 4.000076e-001 -4.602372e+000 149 90 108
-8.555250e-001 7.763391e-001 -4.554294e+000 184 119 134
2.134586e+000 -8.008101e-001 -6.275334e+000 240 219 94
2.120024e+000 -8.117649e-001 -6.332386e+000 185 193 135
2.120024e+000 -8.117649e-001 -6.332386e+000 185 193 135
2.207051e+000 -7.228486e-001 -6.153225e+000 197 169 49
-8.603174e-001 2.297260e-001 -4.656787e+000 255 216 220
2.600537e+000 -2.992456e+000 -1.012045e+001 140 131 150
2.515019e+000 -2.632892e+000 -1.028584e+001 128 115 128
2.361671e+000 -2.754531e+000 -1.076065e+001 80 68 82
2.304367e+000 -2.745751e+000 -1.084328e+001 84 72 87
-1.222892e+000 -2.879622e+000 -1.302727e+001 85 46 56
2.188137e+000 -8.508173e-001 -6.189308e+000 200 173 44
2.151672e+000 -8.368928e-001 -6.256235e+000 196 170 45
1.939995e+000 -2.094249e+000 -1.184963e+001 74 49 49
2.220204e+000 -3.521570e-001 -6.100895e+000 206 172 32
-6.773001e-001 -2.058600e-001 -5.014269e+000 250 240 251
-9.006958e-001 -2.223066e-001 -5.034950e+000 155 201 235
-9.090671e-001 -1.761689e-001 -4.989108e+000 119 141 190
1.238326e+000 -9.384542e-002 -5.331924e+000 236 173 181
-4.358493e-001 -3.403603e-002 -4.759450e+000 255 209 215
9.098165e-001 1.328962e-001 -5.688491e+000 150 41 66
-6.509311e-001 3.708949e-001 -4.611161e+000 202 131 146
3.528315e-001 6.226164e-001 -5.368686e+000 153 104 124
3.669222e-001 6.468603e-001 -5.380064e+000 247 224 229
-1.029456e+000 7.878339e-001 -4.595179e+000 249 196 203
9.064065e-001 5.012817e-001 -5.468208e+000 215 196 204
1.895087e+000 -3.221462e+000 -1.218061e+001 53 44 53
2.553694e+000 -3.501293e+000 -1.029857e+001 111 107 131
2.294660e+000 -3.470360e+000 -1.096983e+001 56 46 58
5.352476e-001 1.061009e+000 -5.585597e+000 142 34 59
4.966974e-001 1.068536e+000 -5.578921e+000 140 30 54
1.444338e-001 8.810794e-001 -5.555562e+000 238 44 79
1.625856e+000 2.882311e+000 -7.323577e+000 141 135 154
-1.919966e+000 1.991562e+000 -1.160154e+001 121 100 115
-2.202226e-002 7.462028e-001 -5.465633e+000 107 3 7
-2.832567e+000 1.025984e+000 -1.250766e+001 116 95 104
1.302186e+000 1.026987e+000 -5.829940e+000 215 42 64
5.518569e-002 1.267612e+000 -5.760115e+000 181 26 39
1.403652e-001 5.574761e-001 -5.375436e+000 104 39 63
8.535118e-001 6.952665e-001 -5.563538e+000 234 44 79
4.259532e-001 8.625320e-001 -5.542248e+000 181 35 56
5.781257e-001 1.074276e+000 -5.582342e+000 188 28 41
6.078685e-001 1.659190e+000 -5.855812e+000 96 5 3
2.631267e+000 -3.345634e+000 -1.009320e+001 128 117 138
1.129296e+000 -2.947511e-001 -5.337253e+000 244 181 189
2.039264e-001 5.399332e-001 -5.381338e+000 150 99 104
1.521218e+000 1.256017e+000 -5.276702e+000 185 130 132
1.432509e-001 1.213039e+000 -5.631978e+000 116 3 7
5.163361e-001 1.376841e+000 -5.815485e+000 179 29 36
-3.408559e-001 1.726247e+000 -9.539668e+000 6 6 4
6.533184e-001 1.647070e+000 -5.825581e+000 211 40 57
1.305761e+000 2.500164e+000 -7.980504e+000 19 14 17
1.646174e+000 -4.603242e+000 -1.298644e+001 92 88 103
2.081086e+000 -3.935106e+000 -1.164552e+001 117 113 130
2.029692e+000 -3.281945e+000 -1.173713e+001 74 62 78
2.029692e+000 -3.281945e+000 -1.173713e+001 74 62 78
2.202031e+000 -5.572863e-001 -6.138876e+000 246 219 83
-4.877884e-001 3.144485e-001 -4.587365e+000 247 197 208
4.678029e-001 8.528266e-001 -5.561355e+000 231 195 215
-3.375467e-001 1.668278e+000 -9.563889e+000 72 59 60
-6.325862e-001 1.725801e+000 -1.012567e+001 14 12 15
1.607024e+000 2.400011e+000 -7.435180e+000 114 95 81
2.619904e+000 -3.389208e+000 -1.016332e+001 124 118 149
2.865316e+000 -3.039413e+000 -9.408956e+000 142 138 159
1.795223e+000 -4.261989e+000 -1.252988e+001 107 103 120
2.291649e+000 -3.228112e+000 -1.099117e+001 116 110 129
1.824288e+000 -3.171753e+000 -1.231148e+001 110 102 119
-8.789386e-001 2.956041e-001 -4.632037e+000 229 166 184
-5.087942e-001 4.288369e-001 -4.631231e+000 196 138 152
-6.549865e-001 6.706152e-001 -4.545094e+000 198 130 142
-9.238754e-001 7.066878e-001 -4.530100e+000 195 122 141
-7.396205e-001 7.303013e-001 -4.533713e+000 218 164 175
4.568837e-001 9.094916e-001 -5.557496e+000 234 151 171
5.850127e-001 1.054500e+000 -5.585378e+000 159 29 51
4.056392e-001 1.041029e+000 -5.567352e+000 243 209 229
4.479162e-001 1.055573e+000 -5.572557e+000 225 203 227
1.201842e-001 1.603203e+000 -5.870111e+000 127 2 0
2.524089e+000 -2.629919e-001 -5.318917e+000 227 157 174
2.524089e+000 -2.629919e-001 -5.318917e+000 227 157 174
2.595870e+000 -2.050123e-001 -5.483979e+000 217 37 44
2.549424e+000 -3.157065e-001 -5.281318e+000 213 37 57
2.558855e+000 -2.352624e-001 -5.255635e+000 215 38 58
2.529010e+000 -1.768518e-001 -5.283088e+000 221 180 190
2.506773e+000 -3.711540e-002 -5.302226e+000 214 39 52
2.565920e+000 1.399069e-001 -5.187978e+000 220 188 205
2.579945e+000 -1.842852e-001 -5.174388e+000 210 98 45
-3.053287e+000 -5.563207e-001 -1.481529e+001 103 100 125
-6.847264e-001 6.622960e-001 -4.537820e+000 220 166 180
2.802146e+000 -2.975901e+000 -9.647361e+000 87 79 92
2.143176e+000 -9.761694e-001 -6.198870e+000 175 148 39
2.182147e+000 -6.365550e-001 -6.208464e+000 162 134 36
2.217206e+000 -5.146004e-001 -6.117404e+000 213 182 65
2.567352e+000 -3.167617e-001 -5.203924e+000 218 37 51
-3.069726e+000 -5.866189e-001 -1.497990e+001 105 101 122
2.166848e+000 5.414330e-001 -6.232816e+000 135 83 24
-2.260353e+000 3.939540e-001 -1.222626e+001 30 22 27
-2.260353e+000 3.939540e-001 -1.222626e+001 30 22 27
4.198237e-001 1.124389e+000 -5.579379e+000 205 168 181
4.198237e-001 1.124389e+000 -5.579379e+000 205 168 181
9.741259e-001 1.620431e+000 -5.697746e+000 144 21 29
2.717145e+000 -3.488285e+000 -9.855111e+000 56 54 64
2.198735e+000 -7.698913e-001 -6.161797e+000 159 131 35
2.198735e+000 -7.698913e-001 -6.161797e+000 159 131 35
2.237572e+000 -4.730227e-001 -6.064736e+000 172 142 32
2.552889e+000 -6.145447e-002 -5.230041e+000 221 186 200
2.555200e+000 -1.573355e-002 -5.210275e+000 228 178 201
2.529716e+000 1.265668e-002 -5.283410e+000 229 167 175
2.529716e+000 1.265668e-002 -5.283410e+000 229 167 175
2.570836e+000 1.729770e-001 -5.169411e+000 208 42 65
2.580874e+000 2.696137e-001 -5.143989e+000 190 71 99
2.580874e+000 2.696137e-001 -5.143989e+000 190 71 99
-8.780073e-001 2.726636e-001 -4.633227e+000 230 170 184
-1.889856e+000 5.598714e-001 -1.165904e+001 39 29 37
-1.889856e+000 5.598714e-001 -1.165904e+001 39 29 37
-7.317806e-001 4.449711e-001 -4.585640e+000 166 140 175
-1.058728e+000 6.263021e-001 -4.557932e+000 177 111 130
3.697125e-001 9.056688e-001 -5.543822e+000 147 25 40
3.976095e-001 9.196654e-001 -5.549285e+000 183 112 129
5.703728e-001 1.000970e+000 -5.577213e+000 132 8 22
2.793462e+000 -2.894268e+000 -9.552114e+000 41 31 41
2.157621e+000 -8.965159e-001 -6.249927e+000 205 177 65
2.533882e+000 -2.835115e-001 -5.303801e+000 234 185 202
2.526187e+000 -1.894220e-001 -5.311572e+000 230 182 190
2.547286e+000 -3.363103e-002 -5.242593e+000 190 82 110
2.547286e+000 -3.363103e-002 -5.242593e+000 190 82 110
2.579329e+000 1.926075e-001 -5.138096e+000 250 156 168
2.579329e+000 1.926075e-001 -5.138096e+000 250 156 168
8.710392e-002 3.488179e-002 -1.134841e-001 0 255 0
8.676555e-002 3.452559e-002 -1.634817e-001 255 255 0
-5.300417e-001 6.928229e-001 2.112855e-001 255 0 0
-5.275199e-001 6.901576e-001 1.614203e-001 255 255 0
-1.113612e+000 2.056211e-001 -4.432249e-001 0 255 0
-1.102463e+000 2.038907e-001 -4.919355e-001 255 255 0
-1.152089e+000 2.151165e+000 -2.620609e-001 255 0 0
-1.139725e+000 2.140953e+000 -3.094193e-001 255 255 0
