ply
format ascii 1.0
element face 0
property list uchar int vertex_indices
element vertex 878
property float x
property float y
property float z
property uchar diffuse_red
property uchar diffuse_green
property uchar diffuse_blue
end_header
-9.893282e-001 8.230306e-001 -4.457125e+000 224 166 176
-1.023066e+000 8.215453e-001 -4.464664e+000 227 167 179
-1.134023e+000 8.213396e-001 -4.473807e+000 133 74 96
4.055757e-001 1.191520e+000 -5.507684e+000 161 21 32
1.585477e+000 1.328115e+000 -5.228513e+000 69 31 28
1.585477e+000 1.328115e+000 -5.228513e+000 69 31 28
2.718331e+000 -2.921039e+000 -9.923084e+000 59 47 61
2.322741e+000 -2.282256e+000 -1.095184e+001 121 117 134
8.878094e-001 -9.716319e-003 -5.600942e+000 173 134 153
2.136249e+000 6.269760e-001 -6.256301e+000 111 64 25
-9.616911e-001 4.682401e-001 -4.506168e+000 165 216 253
-1.088221e+000 4.884428e-001 -4.505558e+000 168 157 198
-7.102667e-001 6.718209e-001 -4.482760e+000 170 104 126
-1.014663e+000 7.888302e-001 -4.451827e+000 174 107 127
-1.014663e+000 7.888302e-001 -4.451827e+000 174 107 127
1.709455e+000 1.454884e+000 -5.379988e+000 69 30 30
3.007098e+000 -3.090141e+000 -9.185732e+000 56 47 63
2.542278e+000 -2.972362e+000 -1.035299e+001 103 99 121
2.287784e+000 -3.077088e+000 -1.115558e+001 108 101 118
1.758667e+000 -3.451032e+000 -1.272165e+001 97 90 106
2.637969e+000 -2.635588e+000 -1.015916e+001 119 113 129
2.409288e+000 -2.612480e+000 -1.072173e+001 64 53 67
2.323671e+000 -2.401206e+000 -1.106630e+001 73 53 61
2.275439e+000 -2.407042e+000 -1.112772e+001 124 120 134
2.275439e+000 -2.407042e+000 -1.112772e+001 124 120 134
2.508415e+000 -5.874604e-001 -5.381021e+000 240 183 194
2.527408e+000 -5.525432e-001 -5.317824e+000 243 196 214
2.536633e+000 -4.661891e-001 -5.295034e+000 234 171 187
2.204542e+000 -5.930197e-001 -6.138285e+000 177 147 41
2.540956e+000 -4.120362e-001 -5.264233e+000 237 187 201
9.367643e-001 4.149046e-002 -5.562597e+000 171 124 141
-5.943733e-001 9.215424e-003 -4.662496e+000 226 178 187
-5.432480e-001 1.336043e-001 -4.575734e+000 157 101 112
-5.432480e-001 1.336043e-001 -4.575734e+000 157 101 112
-1.001302e+000 1.319984e-001 -4.542647e+000 215 151 168
-5.492145e-001 2.973373e-001 -4.525327e+000 157 99 111
6.522610e-002 6.515513e-001 -5.324260e+000 233 218 229
9.450491e-002 6.710384e-001 -5.323765e+000 229 219 231
-9.656358e-001 7.009496e-001 -4.488575e+000 241 217 230
3.455324e-001 9.959760e-001 -5.496004e+000 203 132 150
-9.702483e-001 7.919601e-001 -4.453499e+000 178 107 123
-1.053228e+000 8.045746e-001 -4.453491e+000 232 172 179
4.053202e-001 1.111032e+000 -5.506342e+000 151 23 55
2.749808e+000 -3.373699e+000 -9.849264e+000 111 102 121
2.431310e+000 -3.686498e+000 -1.076660e+001 100 95 113
2.530756e+000 -3.529219e+000 -1.052487e+001 114 111 129
2.551242e+000 -3.187243e+000 -1.043181e+001 117 106 126
2.451669e+000 -2.958811e+000 -1.066113e+001 57 46 60
2.099698e+000 -2.238381e+000 -1.154921e+001 107 92 111
1.902936e+000 -2.403806e+000 -1.223716e+001 97 86 99
2.188359e+000 -8.102996e-001 -6.175198e+000 215 192 85
2.519219e+000 -4.946635e-001 -5.340920e+000 234 189 195
-1.581907e-001 6.278460e-001 -5.322404e+000 209 176 193
1.563764e+000 1.105953e+000 -5.137309e+000 159 96 109
5.311964e-001 1.045490e+000 -5.518447e+000 212 136 155
-7.475223e-002 5.678504e-001 -5.412177e+000 243 238 244
1.989231e+000 8.604813e-001 -6.221894e+000 193 133 142
2.096179e+000 -6.256028e-001 -6.307979e+000 219 186 70
-1.285025e-001 3.457516e-001 -5.506563e+000 235 234 243
-3.465761e-002 1.570844e+000 -5.845051e+000 161 16 26
-1.106262e-001 2.277657e-001 -5.678490e+000 198 31 51
1.312652e+000 2.320902e-001 -5.505839e+000 188 119 130
1.405644e+000 3.535596e-001 -5.654950e+000 65 8 8
1.252469e+000 1.290186e+000 -5.309193e+000 184 138 151
-3.073480e+000 3.350386e+000 -1.230586e+001 24 22 27
-3.073480e+000 3.350386e+000 -1.230586e+001 24 22 27
-1.354479e+000 -2.914083e+000 -1.275543e+001 63 59 70
-1.708427e-001 7.479284e-001 -5.385354e+000 193 32 49
2.331728e+000 -1.151702e+000 -5.828457e+000 202 197 105
1.152131e+000 1.471329e-001 -5.502291e+000 189 123 137
2.375581e-001 5.561146e-001 -5.352972e+000 230 208 219
-1.566908e-001 6.102826e-001 -5.431524e+000 221 208 222
-1.672719e-001 7.429034e-001 -5.348350e+000 195 34 51
1.181571e+000 1.365729e+000 -5.919784e+000 157 20 30
1.564742e+000 1.481438e+000 -5.346152e+000 168 118 129
7.926346e-001 -5.026352e+000 -1.494893e+001 42 42 51
2.387893e+000 -3.714780e+000 -1.094962e+001 38 34 49
2.387893e+000 -3.714780e+000 -1.094962e+001 38 34 49
3.010609e+000 -2.984986e+000 -9.138674e+000 60 49 64
2.418113e+000 -2.077229e+000 -8.234663e+000 188 174 148
4.439032e-001 -3.280314e+000 -1.327958e+001 105 81 64
2.545912e+000 -3.548806e-001 -5.271178e+000 224 181 193
2.545912e+000 -3.548806e-001 -5.271178e+000 224 181 193
2.679288e+000 -3.264443e+000 -1.005307e+001 53 42 51
2.672631e+000 -3.255524e+000 -1.002788e+001 53 42 51
1.730042e+000 -3.742001e+000 -1.267597e+001 10 10 12
1.742979e+000 -3.769110e+000 -1.276234e+001 10 10 12
2.304500e+000 -1.971167e+000 -8.539091e+000 178 170 140
1.520512e+000 -2.623819e+000 -1.265048e+001 110 83 65
1.382800e+000 -2.565397e+000 -1.263977e+001 18 29 45
2.054440e+000 -2.182528e+000 -1.169174e+001 54 40 42
2.508640e+000 -5.929464e-001 -5.316381e+000 225 192 209
5.221909e-001 1.606804e-001 -5.642655e+000 211 42 80
-1.012454e+000 6.433773e-001 -4.491458e+000 179 225 255
-9.162627e-001 8.108120e-001 -4.442183e+000 225 165 176
-1.068762e+000 8.414200e-001 -4.455772e+000 152 97 120
1.711214e+000 1.454844e+000 -5.384914e+000 69 30 30
5.836027e-001 1.771139e+000 -5.835028e+000 69 1 0
2.321684e+000 -3.977726e+000 -1.105615e+001 84 79 97
2.538576e+000 -3.376793e+000 -1.052983e+001 98 89 106
2.867506e+000 -2.925645e+000 -9.439099e+000 56 43 54
2.718425e+000 -2.919803e+000 -9.923489e+000 59 47 61
2.517439e+000 -3.032491e+000 -1.052695e+001 59 52 64
2.517439e+000 -3.032491e+000 -1.052695e+001 59 52 64
1.575645e+000 -3.284997e+000 -1.330631e+001 81 74 84
1.643521e+000 -2.806942e+000 -1.285068e+001 47 38 45
1.968018e+000 -2.344723e+000 -1.187090e+001 52 42 42
1.893813e+000 -1.155065e+000 -6.774301e+000 203 182 70
2.511835e+000 -5.953006e-001 -5.322426e+000 228 196 213
2.552052e+000 -3.512253e-001 -5.247437e+000 245 190 207
5.052220e-001 -2.508003e-001 -5.630265e+000 123 6 14
5.052220e-001 -2.508003e-001 -5.630265e+000 123 6 14
2.138793e+000 -2.620906e-001 -6.118767e+000 114 69 10
-9.702195e-001 -1.504478e-001 -4.941437e+000 35 44 92
-6.167384e-001 -4.594160e-002 -4.700654e+000 229 178 190
1.182965e+000 2.138557e-001 -5.543319e+000 173 95 107
4.491085e-001 2.608586e-001 -5.622080e+000 124 4 14
2.117708e+000 3.072915e-001 -6.380765e+000 84 49 7
-4.518104e-001 4.688811e-001 -4.559239e+000 207 155 168
2.187506e+000 6.522190e-001 -6.251627e+000 176 139 90
3.352708e-001 6.018881e-001 -5.405541e+000 154 28 45
-6.833126e-001 6.208775e-001 -4.504252e+000 189 126 143
-6.833126e-001 6.208775e-001 -4.504252e+000 189 126 143
-8.530744e-001 6.353131e-001 -4.529261e+000 247 228 240
2.581778e-001 7.360771e-001 -5.268084e+000 219 197 209
4.099275e-001 7.528467e-001 -5.327659e+000 246 224 228
4.099275e-001 7.528467e-001 -5.327659e+000 246 224 228
-7.097972e-001 6.722663e-001 -4.483129e+000 170 104 126
-4.677187e-002 8.550649e-001 -5.451892e+000 175 25 37
-7.971697e-001 7.361793e-001 -4.461580e+000 233 177 193
4.751913e-001 9.077175e-001 -5.516223e+000 127 24 35
-1.111990e+000 7.932120e-001 -4.469762e+000 229 167 180
3.993175e-001 1.192089e+000 -5.497671e+000 155 24 37
1.210158e+000 1.161250e+000 -5.121876e+000 184 132 143
1.519120e+000 1.642392e+000 -5.461599e+000 98 65 48
2.821891e+000 -3.198557e+000 -9.638440e+000 52 45 57
2.434134e+000 -3.470895e+000 -1.073013e+001 105 97 118
2.837975e+000 -3.055003e+000 -9.630310e+000 118 111 128
2.162086e+000 -3.567540e+000 -1.145172e+001 85 77 96
2.107159e+000 -3.514986e+000 -1.162748e+001 39 35 49
2.798333e+000 -2.816220e+000 -9.702217e+000 57 41 47
2.798333e+000 -2.816220e+000 -9.702217e+000 57 41 47
2.405132e+000 -2.934431e+000 -1.087881e+001 57 46 55
1.623888e+000 -3.498079e+000 -1.307269e+001 88 85 103
2.456351e+000 -2.182407e+000 -8.184664e+000 187 177 143
1.687247e+000 -3.112637e+000 -1.285995e+001 54 48 60
2.305031e+000 -2.048258e+000 -8.486512e+000 113 98 80
2.108826e+000 -2.433485e+000 -1.164542e+001 63 47 56
1.958100e+000 -2.266060e+000 -1.208818e+001 61 47 49
1.793528e+000 -2.159142e+000 -1.250071e+001 62 47 49
2.196180e+000 -8.575816e-001 -6.219099e+000 214 191 78
2.148959e+000 -8.650024e-001 -6.280129e+000 216 192 86
2.511658e+000 -6.205273e-001 -5.392096e+000 221 70 104
2.514882e+000 -5.366675e-001 -5.366616e+000 240 180 193
2.054637e+000 -5.423897e-001 -6.467950e+000 228 191 78
2.250644e+000 -4.563280e-001 -6.073019e+000 229 196 57
2.250644e+000 -4.563280e-001 -6.073019e+000 229 196 57
2.198033e+000 -3.402831e-001 -6.125619e+000 98 62 2
2.171868e+000 -3.003577e-001 -6.131028e+000 121 76 14
2.557516e+000 -2.355856e-001 -5.265133e+000 240 192 195
-5.836549e-001 5.192831e-002 -4.615870e+000 218 170 181
-5.159152e-001 2.288172e-001 -4.561567e+000 225 164 172
2.138456e+000 3.216598e-001 -6.329614e+000 176 139 48
-4.166010e-001 5.164314e-001 -4.629859e+000 220 191 199
-1.108817e+000 5.329982e-001 -4.522837e+000 173 160 196
3.423914e-001 6.932941e-001 -5.340093e+000 243 214 219
1.184815e-001 7.446600e-001 -5.372130e+000 71 6 13
-1.054301e+000 6.769060e-001 -4.488055e+000 242 226 244
-9.756384e-001 7.655454e-001 -4.454341e+000 228 165 173
-1.031794e+000 8.532411e-001 -4.470520e+000 157 100 122
5.245359e-002 1.561587e+000 -5.799544e+000 108 2 1
-3.970789e+000 4.156049e+000 -1.192153e+001 147 93 86
2.192468e+000 -4.009510e+000 -1.139711e+001 51 45 59
2.235119e+000 -3.955220e+000 -1.128266e+001 89 87 105
9.467969e-001 -5.151869e+000 -1.485242e+001 49 48 57
2.572864e+000 -3.605202e+000 -1.040489e+001 111 107 131
2.224179e+000 -3.835256e+000 -1.124088e+001 88 85 102
2.691589e+000 -3.421119e+000 -1.007444e+001 59 54 71
2.383065e+000 -3.551780e+000 -1.094595e+001 99 95 118
2.304695e+000 -3.559004e+000 -1.108379e+001 56 46 58
2.604422e+000 -3.307217e+000 -1.030439e+001 63 47 57
2.359832e+000 -3.346127e+000 -1.088039e+001 53 46 61
2.520052e+000 -3.214745e+000 -1.050073e+001 68 58 74
2.144969e+000 -3.471998e+000 -1.155471e+001 88 81 97
1.609376e+000 -3.908897e+000 -1.310065e+001 36 26 32
2.509437e+000 -3.140580e+000 -1.056788e+001 101 93 110
1.963908e+000 -3.551499e+000 -1.209077e+001 52 47 68
1.963908e+000 -3.551499e+000 -1.209077e+001 52 47 68
2.665196e+000 -2.875639e+000 -1.004919e+001 46 34 46
2.088379e+000 -3.332970e+000 -1.179122e+001 90 78 86
2.088379e+000 -3.332970e+000 -1.179122e+001 90 78 86
1.966432e+000 -3.195900e+000 -1.204443e+001 57 49 60
1.965229e+000 -3.113327e+000 -1.200353e+001 89 85 99
1.965229e+000 -3.113327e+000 -1.200353e+001 89 85 99
2.036509e+000 -2.929993e+000 -1.184615e+001 66 59 74
2.036509e+000 -2.929993e+000 -1.184615e+001 66 59 74
2.500640e+000 -2.589630e+000 -1.051399e+001 106 99 115
2.500640e+000 -2.589630e+000 -1.051399e+001 106 99 115
2.411603e+000 -2.614334e+000 -1.073165e+001 64 53 67
2.411603e+000 -2.614334e+000 -1.073165e+001 64 53 67
1.245495e+000 -3.059605e+000 -1.418590e+001 74 67 78
2.330158e+000 -1.147489e+000 -5.824302e+000 197 196 106
2.337110e+000 -2.070902e+000 -1.098706e+001 71 60 79
2.189119e+000 -2.049104e+000 -1.123186e+001 91 79 87
2.189119e+000 -2.049104e+000 -1.123186e+001 91 79 87
2.020322e+000 -2.062984e+000 -1.179417e+001 62 50 55
2.522899e+000 -6.864709e-001 -5.285717e+000 247 138 75
2.560042e+000 -2.932408e-001 -5.231861e+000 234 190 210
2.567348e+000 -1.953189e-001 -5.257683e+000 237 193 207
-5.666119e-001 2.778384e-001 -4.529525e+000 216 162 175
-8.532310e-001 5.108272e-001 -4.509653e+000 181 161 192
-4.823054e-002 6.217061e-001 -5.323229e+000 194 171 186
-1.060474e+000 5.589432e-001 -4.494168e+000 147 197 227
3.067613e-002 6.359332e-001 -5.321410e+000 239 225 235
-9.255998e-001 6.896719e-001 -4.483069e+000 235 199 216
4.985343e-001 9.200584e-001 -5.474399e+000 204 160 177
-8.199536e-001 7.915058e-001 -4.461926e+000 146 87 107
3.462459e-001 9.966755e-001 -5.497263e+000 203 132 150
-9.284974e-001 8.709708e-001 -4.474026e+000 216 161 173
3.572384e-001 1.151194e+000 -5.516021e+000 229 192 212
-3.967720e+000 3.682020e+000 -1.188399e+001 144 79 71
-5.414913e+000 3.748616e+000 -1.160324e+001 128 72 58
-5.414913e+000 3.748616e+000 -1.160324e+001 128 72 58
-5.573302e+000 3.739139e+000 -1.153287e+001 126 72 64
-5.573302e+000 3.739139e+000 -1.153287e+001 126 72 64
-3.357348e+000 3.860213e+000 -1.200916e+001 142 89 80
-3.357348e+000 3.860213e+000 -1.200916e+001 142 89 80
-4.973168e+000 3.940165e+000 -1.165325e+001 134 72 65
-4.920082e+000 4.022847e+000 -1.160050e+001 135 75 58
-3.552304e+000 4.145092e+000 -1.198417e+001 143 85 86
6.276717e-001 3.116350e-001 -5.454634e+000 210 33 57
6.276717e-001 3.116350e-001 -5.454634e+000 210 33 57
-8.702855e-001 6.134924e-001 -4.490707e+000 161 183 219
2.147318e+000 1.158018e+000 -5.870597e+000 212 176 116
7.382962e-001 1.054497e-001 -5.645660e+000 238 231 239
8.891444e-001 6.700129e-001 -5.457104e+000 147 17 25
-3.240313e+000 3.944528e+000 -1.483249e+001 28 25 33
-3.032025e+000 4.248087e+000 -1.689252e+001 96 85 103
2.520418e+000 1.887233e+000 -5.124367e+000 173 157 104
1.909040e+000 -1.039092e+000 -6.726626e+000 203 178 60
8.751616e-001 -4.928016e-002 -5.541819e+000 51 9 18
2.359606e-001 1.639417e-001 -5.539744e+000 203 42 84
6.199795e-001 2.277844e-001 -5.600712e+000 115 4 13
-6.515186e-001 4.445678e-001 -4.524759e+000 212 160 172
-8.761407e-001 5.615059e-001 -4.486117e+000 188 226 254
-1.016704e+000 7.029168e-001 -4.495904e+000 243 231 243
2.037854e+000 -2.311639e+000 -1.185109e+001 104 96 105
1.820507e+000 -1.782822e+000 -1.242899e+001 75 54 61
-9.403537e-001 -1.357489e-001 -4.965977e+000 251 253 255
8.096193e-001 3.439327e-002 -5.615345e+000 222 196 212
1.054987e+000 6.434320e-001 -5.399732e+000 102 6 13
-1.089486e+000 7.683274e-001 -4.456471e+000 173 111 132
5.209444e-001 1.005118e+000 -5.520253e+000 153 14 28
-8.592852e-001 9.916903e-001 -4.524512e+000 157 123 142
9.700298e-001 1.668672e+000 -5.664470e+000 140 25 36
2.947427e+000 -3.236446e+000 -9.307912e+000 123 117 137
2.947427e+000 -3.236446e+000 -9.307912e+000 123 117 137
2.721347e+000 -3.359718e+000 -9.981691e+000 117 111 132
2.286885e+000 -3.076341e+000 -1.115156e+001 108 101 118
2.561703e+000 -2.650598e+000 -1.030693e+001 67 55 65
2.561703e+000 -2.650598e+000 -1.030693e+001 67 55 65
2.329412e+000 -2.403496e+000 -1.107829e+001 73 53 61
2.126697e+000 -9.407796e-001 -6.285144e+000 211 187 86
2.193234e+000 -7.197574e-001 -6.177899e+000 162 136 39
2.153725e+000 -6.851159e-001 -6.254508e+000 164 169 118
2.237927e+000 -4.849302e-001 -6.059732e+000 225 194 63
2.238329e+000 -4.846064e-001 -6.062590e+000 225 194 63
1.399583e+000 2.383135e-001 -5.478012e+000 75 11 12
-5.728505e-001 2.982751e-001 -4.505238e+000 226 174 184
-9.167826e-001 4.328989e-001 -4.540304e+000 245 237 249
2.487344e+000 -3.535309e+000 -1.056696e+001 51 47 63
2.981056e+000 -3.065000e+000 -9.221150e+000 104 99 117
2.922051e+000 -3.069071e+000 -9.387469e+000 115 100 121
2.783172e+000 -3.159866e+000 -9.755932e+000 32 30 45
2.637056e+000 -3.235995e+000 -1.026035e+001 115 109 126
2.351030e+000 -3.344385e+000 -1.101706e+001 113 109 127
2.404164e+000 -2.860649e+000 -1.082920e+001 116 108 123
2.526634e+000 -2.493696e+000 -1.035720e+001 112 104 121
2.063801e+000 -2.027768e+000 -1.172218e+001 107 91 101
2.063801e+000 -2.027768e+000 -1.172218e+001 107 91 101
2.509669e+000 -5.683039e-001 -5.332424e+000 208 105 132
2.509669e+000 -5.683039e-001 -5.332424e+000 208 105 132
2.519084e+000 -5.188739e-001 -5.322247e+000 209 98 134
2.535420e+000 -4.400885e-001 -5.311731e+000 208 95 122
2.261476e+000 -4.410513e-001 -6.009912e+000 167 135 16
2.287606e+000 -1.004646e-002 -5.949915e+000 167 136 16
2.287606e+000 -1.004646e-002 -5.949915e+000 167 136 16
8.774400e-001 5.567827e-002 -5.562791e+000 223 194 208
2.486783e+000 9.695278e-002 -5.411293e+000 184 158 92
1.575501e-001 7.109550e-001 -5.326928e+000 187 156 176
-7.865752e-001 9.682606e-001 -4.535178e+000 132 93 111
-2.517010e+000 3.301809e+000 -1.205208e+001 91 86 95
-2.517010e+000 3.301809e+000 -1.205208e+001 91 86 95
2.101687e+000 5.392187e-001 -6.275622e+000 149 88 70
-5.093007e-001 -2.625077e-001 -5.259698e+000 158 131 133
4.709549e-001 1.373460e+000 -5.690386e+000 18 7 6
-2.528778e+000 1.852368e+000 -1.243258e+001 124 104 114
1.872581e+000 -1.130118e+000 -6.719935e+000 217 202 91
-5.332521e-001 -1.112255e-001 -4.938536e+000 248 206 217
1.317087e+000 1.477005e-001 -5.385351e+000 131 25 22
-9.830016e-001 2.472073e-001 -4.548936e+000 223 160 169
2.051435e-001 8.699437e-001 -5.468525e+000 231 42 72
1.408884e+000 1.367074e+000 -5.200460e+000 201 144 155
1.123530e+000 8.695637e-002 -5.369376e+000 134 59 62
9.503005e-001 8.720412e-002 -5.459007e+000 74 10 10
7.560509e-001 -2.253837e+000 -1.233854e+001 150 127 126
2.546103e+000 -5.423034e-001 -5.273845e+000 255 62 100
-8.473531e-001 3.543212e-001 -4.527886e+000 217 151 166
1.906179e+000 -1.055344e+000 -6.721371e+000 234 210 88
2.210719e+000 -6.232733e-001 -6.095206e+000 243 216 79
2.247159e+000 -5.174265e-001 -6.014158e+000 188 157 33
2.247159e+000 -5.174265e-001 -6.014158e+000 188 157 33
1.196088e+000 -3.138798e-001 -5.256221e+000 195 133 135
-1.118830e+000 3.144381e-001 -4.608931e+000 233 171 185
-5.802720e-001 3.909900e-001 -4.510160e+000 187 125 131
-6.187868e-001 4.601636e-001 -4.519101e+000 149 90 108
-9.786961e-001 8.583523e-001 -4.471435e+000 184 119 134
2.150459e+000 -8.251286e-001 -6.251606e+000 240 219 94
2.125712e+000 -8.311658e-001 -6.294902e+000 185 193 135
2.132735e+000 -8.340682e-001 -6.310535e+000 185 193 135
2.217577e+000 -7.409614e-001 -6.110040e+000 197 169 49
-9.896693e-001 2.868452e-001 -4.580968e+000 255 216 220
2.623955e+000 -3.077640e+000 -1.021054e+001 140 131 150
2.541434e+000 -2.702499e+000 -1.038040e+001 128 115 128
2.384459e+000 -2.822968e+000 -1.087072e+001 80 68 82
2.325846e+000 -2.812519e+000 -1.095631e+001 84 72 87
-1.306772e+000 -2.886952e+000 -1.322919e+001 85 46 56
2.198633e+000 -8.751246e-001 -6.151279e+000 200 173 44
2.157753e+000 -8.582089e-001 -6.215592e+000 196 170 45
1.964741e+000 -2.125160e+000 -1.198940e+001 74 49 49
2.235876e+000 -3.545344e-001 -6.054011e+000 206 172 32
-7.997299e-001 -1.695369e-001 -4.953763e+000 250 240 251
-1.033323e+000 -1.837037e-001 -4.977929e+000 155 201 235
-1.042021e+000 -1.355717e-001 -4.930020e+000 119 141 190
1.207417e+000 -7.583130e-002 -5.262527e+000 236 173 181
-5.478249e-001 5.774325e-003 -4.684559e+000 255 209 215
8.704794e-001 1.670493e-001 -5.636252e+000 150 41 66
-7.692506e-001 4.316208e-001 -4.529996e+000 202 131 146
2.918728e-001 6.847421e-001 -5.307437e+000 153 104 124
3.070232e-001 7.099388e-001 -5.318994e+000 247 224 229
-1.160046e+000 8.727982e-001 -4.516012e+000 249 196 203
8.698523e-001 5.511903e-001 -5.406083e+000 215 196 204
1.906041e+000 -3.288968e+000 -1.233304e+001 53 44 53
2.568864e+000 -3.601191e+000 -1.039235e+001 111 107 131
2.306336e+000 -3.560796e+000 -1.108571e+001 56 46 58
4.905074e-001 1.141549e+000 -5.530911e+000 142 34 59
4.502539e-001 1.149905e+000 -5.524367e+000 140 30 54
7.961634e-002 9.583300e-001 -5.505197e+000 238 44 79
1.668297e+000 3.031210e+000 -7.320660e+000 141 135 154
-1.983584e+000 2.156514e+000 -1.176514e+001 121 100 115
-9.712519e-002 8.191935e-001 -5.413595e+000 107 3 7
-2.927898e+000 1.170506e+000 -1.270378e+001 116 95 104
1.293960e+000 1.096505e+000 -5.777966e+000 215 42 64
-6.400039e-003 1.364206e+000 -5.718705e+000 181 26 39
6.918733e-002 6.194541e-001 -5.318058e+000 104 39 63
8.182998e-001 7.548557e-001 -5.505998e+000 234 44 79
3.734975e-001 9.352100e-001 -5.488181e+000 181 35 56
5.357875e-001 1.154686e+000 -5.527892e+000 188 28 41
5.773470e-001 1.766440e+000 -5.811329e+000 96 5 3
2.650055e+000 -3.443044e+000 -1.018064e+001 128 117 138
1.091116e+000 -2.842397e-001 -5.270232e+000 244 181 189
1.354640e-001 6.003088e-001 -5.323540e+000 150 99 104
1.520979e+000 1.331229e+000 -5.198770e+000 185 130 132
8.359538e-002 1.305620e+000 -5.584300e+000 116 3 7
4.775537e-001 1.472456e+000 -5.770930e+000 179 29 36
-3.731191e-001 1.857269e+000 -9.638845e+000 6 6 4
6.243831e-001 1.753095e+000 -5.779357e+000 211 40 57
1.335800e+000 2.638396e+000 -8.006818e+000 19 14 17
1.635629e+000 -4.703376e+000 -1.315699e+001 92 88 103
2.083618e+000 -4.032153e+000 -1.178047e+001 117 113 130
2.040479e+000 -3.356241e+000 -1.187566e+001 74 62 78
2.040479e+000 -3.356241e+000 -1.187566e+001 74 62 78
2.214287e+000 -5.680883e-001 -6.094419e+000 246 219 83
-5.995021e-001 3.703644e-001 -4.503310e+000 247 197 208
4.172999e-001 9.245824e-001 -5.507646e+000 231 195 215
-3.701660e-001 1.796994e+000 -9.664080e+000 72 59 60
-6.699315e-001 1.861841e+000 -1.024510e+001 14 12 15
1.643811e+000 2.529215e+000 -7.438913e+000 114 95 81
2.638149e+000 -3.487395e+000 -1.025286e+001 124 118 149
2.892381e+000 -3.134500e+000 -9.473796e+000 142 138 159
1.790582e+000 -4.357861e+000 -1.268902e+001 107 103 120
2.306608e+000 -3.309938e+000 -1.110729e+001 116 110 129
1.834181e+000 -3.235219e+000 -1.246677e+001 110 102 119
-1.008495e+000 3.559407e-001 -4.554587e+000 229 166 184
-6.195127e-001 4.904903e-001 -4.549056e+000 196 138 152
-7.703453e-001 7.450562e-001 -4.460187e+000 198 130 142
-1.051466e+000 7.862643e-001 -4.447591e+000 195 122 141
-8.582825e-001 8.085837e-001 -4.449154e+000 218 164 175
4.066085e-001 9.839437e-001 -5.503642e+000 234 151 171
5.427467e-001 1.133933e+000 -5.531002e+000 159 29 51
3.549074e-001 1.122151e+000 -5.514252e+000 243 209 229
3.993445e-001 1.136816e+000 -5.519179e+000 225 203 227
6.713074e-002 1.714429e+000 -5.831926e+000 127 2 0
2.549513e+000 -2.696743e-001 -5.239267e+000 227 157 174
2.552481e+000 -2.702343e-001 -5.244311e+000 227 157 174
2.626382e+000 -2.091800e-001 -5.409943e+000 217 37 44
2.575034e+000 -3.252925e-001 -5.200263e+000 213 37 57
2.585743e+000 -2.414764e-001 -5.173073e+000 215 38 58
2.560940e+000 -1.820344e-001 -5.208014e+000 221 180 190
2.544205e+000 -3.572152e-002 -5.232359e+000 214 39 52
2.598344e+000 1.500492e-001 -5.101663e+000 220 188 205
2.607858e+000 -1.888881e-001 -5.088192e+000 210 98 45
-3.143353e+000 -4.513542e-001 -1.506230e+001 103 100 125
-8.016578e-001 7.367218e-001 -4.452914e+000 220 166 180
2.830724e+000 -3.067487e+000 -9.722780e+000 87 79 92
2.167711e+000 -1.017113e+000 -6.195068e+000 175 148 39
2.193802e+000 -6.505188e-001 -6.168053e+000 162 134 36
2.231362e+000 -5.241868e-001 -6.072663e+000 213 182 65
2.593201e+000 -3.270336e-001 -5.119683e+000 218 37 51
-3.158301e+000 -4.815082e-001 -1.522958e+001 105 101 122
2.193616e+000 5.795464e-001 -6.188788e+000 135 83 24
-2.348760e+000 5.083509e-001 -1.241389e+001 30 22 27
-2.348760e+000 5.083509e-001 -1.241389e+001 30 22 27
3.709648e-001 1.209296e+000 -5.525682e+000 205 168 181
3.709648e-001 1.209296e+000 -5.525682e+000 205 168 181
9.580278e-001 1.720758e+000 -5.641567e+000 144 21 29
2.736580e+000 -3.595512e+000 -9.938307e+000 56 54 64
2.209034e+000 -7.901883e-001 -6.120097e+000 159 131 35
2.209034e+000 -7.901883e-001 -6.120097e+000 159 131 35
2.254184e+000 -4.820480e-001 -6.019028e+000 172 142 32
2.581588e+000 -5.987577e-002 -5.145654e+000 221 186 200
2.584454e+000 -1.221729e-002 -5.124866e+000 228 178 201
2.559644e+000 1.778287e-002 -5.201766e+000 229 167 175
2.559644e+000 1.778287e-002 -5.201766e+000 229 167 175
2.602218e+000 1.851615e-001 -5.082437e+000 208 42 65
2.614517e+000 2.853717e-001 -5.054468e+000 190 71 99
2.614517e+000 2.853717e-001 -5.054468e+000 190 71 99
-1.007855e+000 3.319160e-001 -4.555985e+000 230 170 184
-1.970680e+000 6.732160e-001 -1.182933e+001 39 29 37
-1.970680e+000 6.732160e-001 -1.182933e+001 39 29 37
-8.531850e-001 5.100890e-001 -4.504029e+000 166 140 175
-1.193270e+000 7.040390e-001 -4.478344e+000 177 111 130
3.153047e-001 9.811797e-001 -5.489797e+000 147 25 40
3.447077e-001 9.954637e-001 -5.495144e+000 183 112 129
5.266590e-001 1.078278e+000 -5.522133e+000 132 8 22
2.822265e+000 -2.983572e+000 -9.624780e+000 41 31 41
2.165076e+000 -9.212831e-001 -6.212526e+000 205 177 65
2.559376e+000 -2.913265e-001 -5.223589e+000 234 185 202
2.552611e+000 -1.928562e-001 -5.231250e+000 230 182 190
2.576275e+000 -3.073828e-002 -5.158394e+000 190 82 110
2.576275e+000 -3.073828e-002 -5.158394e+000 190 82 110
2.611857e+000 2.048769e-001 -5.048683e+000 250 156 168
2.611857e+000 2.048769e-001 -5.048683e+000 250 156 168
2.593837e+000 6.253192e-002 -5.137244e+000 231 165 179
2.591951e+000 6.255074e-002 -5.136051e+000 231 165 179
2.562584e+000 -1.811690e-001 -5.209480e+000 221 180 190
2.599744e+000 -1.094738e-004 -5.092020e+000 207 46 66
2.557630e+000 -9.924093e-002 -5.215743e+000 228 185 199
2.402733e+000 -5.721063e-001 -5.621967e+000 164 134 16
2.248570e+000 -5.559430e-001 -6.044148e+000 154 125 24
2.549913e+000 -3.505988e-001 -5.243531e+000 229 182 199
2.258964e+000 -2.307239e-001 -6.020960e+000 164 134 26
2.387472e+000 -7.257914e-001 -5.686210e+000 159 131 23
2.502297e+000 -5.035954e-001 -5.357550e+000 206 64 74
2.447567e+000 -2.502259e-001 -5.525322e+000 175 143 24
2.571239e+000 -8.576515e-002 -5.177853e+000 194 79 112
2.569264e+000 3.670865e-002 -5.174179e+000 199 76 92
2.610723e+000 1.590395e-001 -5.068403e+000 233 168 187
2.573342e+000 2.334810e-001 -5.125169e+000 255 59 95
2.596564e+000 6.499707e-003 -5.179158e+000 226 168 192
2.677174e+000 3.973714e-001 -4.882676e+000 250 146 73
2.635978e+000 2.210042e-001 -5.013701e+000 255 63 106
2.613663e+000 1.454823e-001 -5.025539e+000 255 65 107
-7.984981e-001 1.114720e+000 -1.018917e+001 67 52 60
2.549597e+000 1.281500e+000 -4.725089e+000 252 200 98
2.624373e+000 2.943853e-001 -5.026839e+000 255 198 213
2.606282e+000 2.263734e-001 -5.068625e+000 247 69 109
1.891689e+000 -1.083052e+000 -6.789787e+000 43 25 2
2.128125e+000 -6.184212e-001 -6.386406e+000 225 194 65
-2.079244e+000 5.908551e+000 -1.018842e+001 144 134 154
-2.079244e+000 5.908551e+000 -1.018842e+001 144 134 154
3.527066e-001 7.222692e-002 -5.842742e+000 76 0 0
-9.297186e-001 -1.909060e-001 -4.961117e+000 18 22 29
2.589079e+000 1.772988e+000 -4.875595e+000 140 115 13
1.224115e+000 2.252324e-001 -8.305210e+000 14 12 13
1.929779e+000 -8.745041e-001 -6.740257e+000 214 186 52
-9.751020e-001 -2.361130e-001 -5.050421e+000 180 210 246
1.267856e+000 -6.441231e-002 -8.333629e+000 148 144 164
1.866527e+000 -6.712907e-001 -6.935407e+000 205 179 50
1.558909e+000 -8.500698e-002 -7.699080e+000 163 141 40
-1.947112e+000 3.629038e+000 -1.083186e+001 20 17 19
-8.273342e-001 5.947222e+000 -1.031139e+001 100 93 109
-1.878030e+000 5.955000e+000 -1.001712e+001 14 83 114
-4.009577e-001 8.683676e+000 -1.119495e+001 104 80 99
-9.472685e-001 8.507026e+000 -1.087997e+001 107 58 72
2.531066e+000 6.384132e-002 -5.171552e+000 244 50 76
2.668808e+000 5.343039e-001 -4.993427e+000 197 96 122
9.771576e-001 2.870906e-001 -8.885527e+000 142 135 156
1.568994e+000 -4.180617e-001 -7.594052e+000 192 169 53
1.521575e+000 -2.784260e-001 -7.725633e+000 182 161 43
1.511048e+000 -1.438805e-001 -7.764977e+000 124 108 55
1.908250e+000 -1.039609e+000 -6.753354e+000 209 182 55
-2.063493e+000 5.637561e+000 -1.087179e+001 0 55 99
-8.202599e-001 -9.711662e-002 -4.822031e+000 233 173 180
-1.579872e-002 8.317301e+000 -1.132315e+001 89 73 85
-1.579872e-002 8.317301e+000 -1.132315e+001 89 73 85
2.583298e+000 -1.676671e-001 -5.138489e+000 239 48 75
-3.368204e-002 8.526427e+000 -1.119557e+001 115 72 91
2.718136e+000 4.817897e-001 -4.788602e+000 237 47 65
9.496085e-001 1.270258e-001 -8.900158e+000 155 151 173
1.198557e+000 2.817051e-002 -8.470540e+000 19 14 17
-4.116976e-001 1.326385e+000 -9.607426e+000 114 93 104
1.537871e+000 -2.061215e-001 -7.727497e+000 175 152 50
-1.056438e+000 -3.257162e-001 -5.234924e+000 139 96 115
-2.145874e+000 5.789790e+000 -1.034043e+001 30 84 110
2.285361e+000 -4.234872e-002 -5.939924e+000 187 154 44
2.288643e+000 -3.859158e-002 -5.944751e+000 187 154 44
-1.070834e+000 5.877684e+000 -1.041338e+001 79 60 64
-2.072472e+000 5.877002e+000 -1.014850e+001 146 135 156
-2.193713e+000 5.920533e+000 -1.001871e+001 24 87 121
-1.125735e+000 5.938052e+000 -1.018678e+001 99 92 111
-1.123570e+000 5.947717e+000 -1.019405e+001 99 92 111
-9.769882e-001 -1.457334e-001 -4.927234e+000 21 33 77
-8.650824e-001 -1.205256e-001 -4.893817e+000 170 224 254
-6.730824e-001 -1.119829e-001 -4.793541e+000 227 176 187
2.585857e+000 1.451653e-001 -5.102256e+000 236 202 216
2.508630e+000 1.800561e+000 -5.062916e+000 148 125 76
8.124369e-001 3.378969e-001 -9.241538e+000 165 148 162
8.711900e-001 3.625668e-001 -9.126684e+000 152 140 157
1.171668e+000 -7.617021e-002 -8.499904e+000 19 16 22
8.405097e-001 6.446814e-001 -9.069491e+000 131 122 141
8.542858e-001 6.674483e-001 -9.096391e+000 131 122 141
8.760164e-001 6.276834e-001 -9.022846e+000 129 121 134
1.668174e+000 -4.388720e-001 -7.394007e+000 196 174 54
1.749742e+000 -6.147088e-001 -7.184492e+000 151 121 101
1.690147e+000 -2.896325e-001 -7.351690e+000 196 174 51
2.162372e+000 -1.021241e+000 -6.189699e+000 181 152 32
2.173763e+000 -8.042659e-001 -6.216188e+000 164 134 20
2.180144e+000 -6.102652e-001 -6.168182e+000 233 197 67
-2.271425e+000 5.824114e+000 -1.026296e+001 20 77 100
-2.246724e+000 5.868851e+000 -1.013445e+001 29 87 115
-9.468289e-001 5.944469e+000 -1.032746e+001 9 37 76
-2.127055e+000 5.899507e+000 -1.006008e+001 12 56 66
-1.814415e+000 5.911317e+000 -1.011156e+001 6 22 29
-2.010590e+000 5.910910e+000 -1.005893e+001 0 33 53
-1.519253e+000 5.933824e+000 -1.014507e+001 123 110 132
-7.567829e-001 -1.379241e-001 -4.894730e+000 200 140 153
-7.010467e-001 -1.066955e-001 -4.842703e+000 131 82 103
-6.334248e-001 -1.165591e-001 -4.810515e+000 144 87 100
2.557115e+000 -9.906133e-002 -5.216842e+000 240 208 219
-7.917997e-002 8.375852e+000 -1.124840e+001 36 43 73
-1.167944e+000 4.305071e-001 -4.598300e+000 248 187 198
4.331305e+000 1.742258e+000 -5.150217e+000 114 91 108
2.556210e+000 1.823266e+000 -4.922617e+000 211 182 62
8.049003e-001 2.758656e-001 -9.215865e+000 167 143 158
9.866220e-001 8.302295e-002 -8.895280e+000 98 90 110
1.028551e+000 2.521560e-001 -8.802192e+000 137 134 150
7.806226e-001 6.191396e-001 -9.214204e+000 124 20 32
9.668686e-001 5.420629e-001 -8.861157e+000 54 50 67
9.705714e-001 5.472390e-001 -8.870757e+000 54 50 67
1.067559e+000 3.821125e-001 -8.674473e+000 65 63 77
8.945981e-001 6.859852e-001 -8.998541e+000 127 108 122
8.945981e-001 6.859852e-001 -8.998541e+000 127 108 122
1.475804e+000 -2.931725e-001 -7.826292e+000 182 161 54
9.002093e-001 7.566614e-001 -8.952652e+000 119 92 99
9.694356e-001 6.797395e-001 -8.841659e+000 51 45 51
9.502902e-001 7.241839e-001 -8.852042e+000 98 84 98
1.050394e+000 6.966907e-001 -8.686832e+000 36 30 37
1.651566e+000 -4.062130e-001 -7.431835e+000 134 99 34
1.646342e+000 -3.526526e-001 -7.458637e+000 176 139 59
1.669880e+000 -2.016913e-001 -7.411519e+000 165 144 50
1.539808e+000 9.816913e-002 -7.677519e+000 16 15 10
2.163107e+000 -8.624899e-001 -6.228015e+000 178 147 28
2.163107e+000 -8.624899e-001 -6.228015e+000 178 147 28
2.236571e+000 -6.582573e-001 -6.081195e+000 168 139 24
2.210045e+000 -5.946397e-001 -6.141164e+000 184 154 41
2.248920e+000 -5.566506e-001 -6.040673e+000 178 147 29
-9.355347e-001 -2.622289e-001 -5.065042e+000 242 236 249
-1.742004e+000 5.895296e+000 -1.012177e+001 12 65 98
-1.742004e+000 5.895296e+000 -1.012177e+001 12 65 98
-1.122731e-001 3.487592e-001 -5.454063e+000 200 164 176
2.588698e+000 -1.204735e-002 -5.130618e+000 250 193 220
-1.104925e+000 8.211900e-002 -4.746019e+000 184 117 135
-1.198467e+000 4.343716e-001 -4.608518e+000 214 142 155
4.312475e+000 1.511687e+000 -5.255048e+000 108 84 99
8.267671e-001 5.097547e-001 -9.156248e+000 164 132 147
1.182760e+000 9.321983e-002 -8.444398e+000 28 24 36
1.042593e+000 3.636484e-001 -8.733022e+000 116 112 125
1.197776e+000 1.532376e-001 -8.415765e+000 19 14 21
1.056567e+000 4.646259e-001 -8.705605e+000 97 94 107
1.674666e+000 -4.891560e-001 -7.366989e+000 162 133 28
8.387235e-001 1.048255e+000 -9.012186e+000 57 12 12
1.945114e+000 -1.008077e+000 -6.688685e+000 57 26 0
-3.595576e-001 5.878219e+000 -1.056818e+001 16 14 28
-2.042372e+000 5.926164e+000 -9.966439e+000 1 32 47
-8.128104e-001 -1.466906e-001 -4.935897e+000 164 184 222
2.678007e+000 1.503211e+000 -4.897576e+000 216 191 135
1.609481e+000 -4.064496e-001 -7.486358e+000 143 102 62
-8.355448e-001 -1.443040e-001 -4.909781e+000 185 218 249
9.879182e-001 5.381925e-001 -8.744354e+000 101 95 112
1.270037e+000 3.369373e-001 -8.260556e+000 10 10 8
-4.287721e-002 1.014977e+001 -1.124775e+001 7 8 7
9.514179e-001 6.528037e-001 -8.879514e+000 106 98 116
2.173684e+000 -8.037076e-001 -6.217280e+000 164 134 20
-1.297530e+000 5.938365e+000 -1.026019e+001 5 15 53
-7.945478e-001 -1.286726e-001 -4.915353e+000 238 219 239
2.545240e+000 1.704861e+000 -4.944707e+000 215 184 67
4.352393e+000 2.049670e+000 -4.837372e+000 155 144 166
1.188751e+000 2.172765e-001 -8.437639e+000 86 80 88
1.043576e+000 5.926218e-001 -8.714903e+000 36 28 38
9.253016e-001 -5.085826e-001 -5.475769e+000 179 101 101
-1.540159e+000 1.014704e+001 -1.070407e+001 92 36 68
1.198208e+000 1.532337e-001 -8.413882e+000 19 14 21
-2.910596e+000 5.611612e+000 -1.099036e+001 34 34 34
-2.910596e+000 5.611612e+000 -1.099036e+001 34 34 34
-2.842223e+000 5.642134e+000 -1.073933e+001 33 33 33
2.137938e+000 1.184831e-002 -6.161661e+000 214 176 51
-1.060094e-001 1.053501e-001 -5.897949e+000 160 15 24
1.735900e+000 -3.670442e-001 -7.278808e+000 194 169 50
1.841355e+000 -7.574598e-001 -6.916072e+000 202 175 44
-2.048014e-001 2.509297e-001 -5.729132e+000 25 10 9
1.585187e+000 1.140133e+000 -5.167245e+000 201 141 156
1.562799e+000 -1.935154e-001 -7.523550e+000 116 94 17
1.905861e+000 -7.131699e-001 -6.737904e+000 37 26 11
-3.060737e-001 -5.051328e-002 -5.952958e+000 14 10 9
1.856327e+000 2.214179e-001 -6.346206e+000 56 31 11
-9.303486e-001 -1.882928e-001 -4.962527e+000 21 21 28
1.595978e+000 6.482073e-002 -5.653162e+000 188 122 126
1.592692e+000 -6.978089e-001 -7.681720e+000 155 132 38
1.592692e+000 -6.978089e-001 -7.681720e+000 155 132 38
-7.210883e-001 3.992152e+000 -9.375596e+000 112 108 131
-7.947491e-001 -2.981834e-001 -5.301505e+000 177 129 140
-8.155271e-001 -3.531821e-001 -4.897474e+000 178 192 225
1.338411e+000 1.178719e+000 -5.218030e+000 67 12 5
1.269969e+000 1.126195e+000 -5.041454e+000 183 124 136
1.269969e+000 1.126195e+000 -5.041454e+000 183 124 136
1.830044e+000 -5.034513e-001 -7.072900e+000 180 157 42
2.010405e+000 -7.681461e-001 -6.684542e+000 44 28 12
2.869613e-001 -8.069122e-002 -6.206950e+000 172 25 33
8.651539e-001 -5.098876e-001 -5.965651e+000 151 14 19
-6.066370e-002 2.579853e-001 -5.729652e+000 104 3 5
-3.453307e-001 2.239602e-001 -5.477446e+000 197 179 196
-1.571538e-001 3.268760e-001 -5.530876e+000 239 228 237
-2.435390e-001 3.336694e-001 -5.481124e+000 121 9 14
-1.036802e+000 -2.160603e-001 -4.907674e+000 169 201 240
-2.308065e-001 4.927845e-001 -5.376316e+000 10 10 10
8.894599e-001 5.166935e-001 -5.465351e+000 84 0 0
1.351787e+000 -4.267834e-001 -5.270046e+000 96 45 29
-5.556796e-001 2.326415e-001 -4.405780e+000 97 81 99
2.592364e+000 -1.630758e-001 -4.976934e+000 229 42 65
1.479722e+000 -1.839019e-001 -6.890410e+000 108 65 63
3.818239e-001 -9.242634e-002 -6.035989e+000 207 33 59
3.595258e-003 4.713268e-001 -5.403538e+000 58 17 30
-9.328290e-001 -1.318052e-001 -4.849036e+000 168 182 216
-1.023010e+000 -9.931853e-002 -4.807040e+000 237 174 185
1.036049e+000 6.140520e-001 -5.509563e+000 99 2 1
2.502638e+000 -5.744372e-001 -5.330378e+000 184 109 121
2.502638e+000 -5.744372e-001 -5.330378e+000 184 109 121
-9.934781e-001 3.911778e-001 -4.419536e+000 23 20 33
2.503479e+000 -4.071099e-001 -5.251083e+000 219 159 175
2.503479e+000 -4.071099e-001 -5.251083e+000 219 159 175
1.156917e+000 1.110871e+000 -5.108698e+000 173 123 137
1.156917e+000 1.110871e+000 -5.108698e+000 173 123 137
2.563862e+000 -1.717457e-001 -5.211197e+000 225 166 179
1.768794e+000 -8.039582e-001 -7.369792e+000 144 117 59
1.922924e+000 -8.838634e-001 -6.507347e+000 166 119 116
-9.869616e-001 -3.615512e-001 -5.233070e+000 71 33 45
2.150396e+000 -5.362248e-001 -6.284648e+000 216 185 54
-9.971723e-001 -3.619239e-001 -5.175293e+000 182 132 146
-8.456401e-001 -3.357647e-001 -5.232712e+000 88 42 52
-8.309017e-001 -3.078280e-001 -5.104132e+000 231 170 179
2.211952e+000 7.424520e-001 -6.207227e+000 192 150 60
-4.746370e-001 -8.058028e-002 -5.001236e+000 156 108 117
7.496743e-001 5.592889e-001 -5.541395e+000 213 37 58
2.550133e+000 -4.626610e-001 -5.237994e+000 228 45 68
-9.998512e-001 4.878791e-001 -4.375693e+000 216 151 163
1.421900e+000 1.073986e+000 -5.215762e+000 165 100 110
2.532677e+000 -3.831184e-001 -5.185570e+000 223 45 71
2.587375e+000 -4.016001e-001 -5.168688e+000 226 124 57
2.664937e+000 4.928056e-001 -4.825633e+000 208 95 40
8.318060e-001 8.853074e-001 -9.011358e+000 81 80 92
-1.544731e-001 2.696123e-001 -5.871228e+000 189 26 40
-1.227399e+000 -2.865512e-001 -5.152332e+000 165 110 129
-1.059915e+000 -3.160014e-001 -5.087453e+000 222 158 172
-1.069532e+000 -2.938111e-001 -5.020775e+000 181 107 126
6.572005e-001 1.329683e-001 -5.660027e+000 98 10 16
-2.618263e-001 4.091455e-001 -5.429689e+000 174 149 164
-1.816987e-001 5.270293e-001 -5.454454e+000 205 186 201
1.008380e+000 -4.128002e-001 -5.526778e+000 97 43 35
-5.439251e-001 -1.302265e-001 -4.930605e+000 69 25 28
-6.288856e-001 -1.499973e-001 -4.888766e+000 75 32 43
-9.181456e-001 -1.498518e-001 -4.791472e+000 130 79 102
-5.772471e-001 -8.999824e-002 -4.675734e+000 175 114 125
1.431128e+000 -2.159083e-001 -5.143909e+000 152 94 98
1.686799e+000 5.475524e-002 -5.254460e+000 159 104 73
2.528649e+000 -5.591595e-001 -5.264520e+000 227 42 71
-4.674504e-001 4.078483e-001 -4.549685e+000 212 165 176
-8.508721e-001 3.554660e-001 -4.415757e+000 204 188 222
2.579160e+000 2.037548e-001 -4.957443e+000 217 49 66
2.608775e+000 1.607476e-001 -4.928115e+000 215 116 49
2.586025e+000 3.198616e-001 -4.906213e+000 221 44 64
1.234931e+000 -5.383036e-002 -8.468175e+000 18 10 22
7.952598e-001 9.793586e-001 -9.049554e+000 58 11 12
8.755992e-001 1.005859e+000 -9.008843e+000 74 62 71
1.220003e+000 2.505111e-001 -8.403264e+000 8 8 10
1.221973e+000 3.299631e-001 -8.355522e+000 6 6 6
1.675785e+000 -6.996938e-002 -7.435246e+000 23 17 6
1.762899e+000 -1.240766e-001 -7.412070e+000 152 131 45
1.782589e+000 -4.775054e-001 -7.148270e+000 165 137 112
1.885209e+000 -1.164067e+000 -6.762378e+000 204 180 51
2.006195e+000 -5.348665e-001 -6.413252e+000 95 47 7
-1.327710e+000 -2.824972e-001 -5.261876e+000 132 101 116
-1.116645e+000 -3.075937e-001 -5.185567e+000 207 155 165
-7.475717e-001 -3.046031e-001 -5.209147e+000 198 149 168
2.172911e+000 -5.039173e-001 -6.170218e+000 76 53 4
-7.408457e-001 -2.814522e-001 -5.170451e+000 109 54 68
-1.094187e+000 -2.689941e-001 -4.979698e+000 185 114 134
-1.094187e+000 -2.689941e-001 -4.979698e+000 185 114 134
-9.682176e-001 -3.074157e-001 -4.991277e+000 160 219 249
2.256985e+000 -3.232479e-001 -6.067047e+000 182 150 40
2.172234e+000 5.183522e-001 -6.151461e+000 151 101 36
-6.318692e-001 -1.695578e-001 -4.957680e+000 143 82 103
1.025766e+000 -4.700273e-001 -5.423660e+000 191 141 148
-8.170071e-001 -1.964583e-001 -4.848878e+000 143 98 124
-2.182453e-001 6.473687e-001 -5.285708e+000 174 30 41
-3.477338e-001 2.122504e-001 -4.657361e+000 192 156 167
2.519448e+000 -6.410057e-001 -5.326183e+000 225 46 72
-9.595013e-001 3.366280e-001 -4.451368e+000 250 246 253
-5.593331e-001 9.221801e-002 -4.511574e+000 237 192 207
-1.046210e+000 5.093488e-001 -4.427991e+000 171 175 210
1.181332e+000 1.392189e+000 -5.206413e+000 70 55 66
8.700887e-001 6.132293e-001 -9.010256e+000 122 107 120
9.394416e-001 5.661319e-001 -8.909130e+000 113 99 106
9.842785e-001 7.400377e-001 -8.815311e+000 32 26 31
9.842785e-001 7.400377e-001 -8.815311e+000 32 26 31
1.486432e+000 -2.709320e-001 -7.846944e+000 170 149 53
1.636305e+000 -3.339854e-001 -7.520157e+000 96 63 21
1.734398e+000 -3.506630e-001 -7.526568e+000 192 169 55
1.702904e+000 -3.886362e-001 -7.375366e+000 152 129 26
1.412388e+000 -2.791920e-001 -6.821049e+000 118 83 86
2.132369e+000 -9.928523e-001 -6.283672e+000 165 132 28
2.190732e+000 -8.741506e-001 -6.284573e+000 173 140 39
2.190732e+000 -8.741506e-001 -6.284573e+000 173 140 39
-1.333680e+000 -2.911491e-001 -5.196499e+000 184 141 157
-1.122034e+000 -3.092820e-001 -5.222854e+000 134 85 103
-1.066190e+000 -3.328754e-001 -5.119393e+000 160 98 112
-1.099396e+000 -3.218633e-001 -5.107823e+000 151 90 106
-1.007329e+000 -3.585082e-001 -5.124570e+000 167 101 120
-8.075947e-001 -3.379275e-001 -5.168620e+000 189 139 152
2.211319e+000 -5.932924e-001 -6.143277e+000 178 148 29
-3.997691e-002 2.872673e-001 -5.657629e+000 164 9 21
2.280268e+000 -5.310022e-001 -6.107778e+000 164 130 23
-7.059945e-001 -2.869593e-001 -5.137014e+000 151 89 100
2.050858e+000 2.351389e-001 -6.246537e+000 173 125 110
1.206299e-001 3.456693e-001 -5.561991e+000 179 77 101
-7.615068e-001 -1.635626e-001 -4.946886e+000 211 143 158
-6.007082e-001 -1.903739e-001 -4.985608e+000 134 71 84
9.889207e-001 -4.723403e-001 -5.414274e+000 146 89 103
-1.103768e-001 5.758271e-001 -5.347489e+000 193 155 160
-9.594635e-001 -1.474482e-001 -4.802176e+000 229 167 181
1.116690e+000 -4.657026e-001 -5.326079e+000 198 145 152
-6.281823e-001 -1.563239e-001 -4.831861e+000 188 136 143
-1.123388e+000 -3.570385e-002 -4.688455e+000 182 126 142
-1.009279e+000 -4.307271e-002 -4.642764e+000 132 62 81
-5.421400e-001 9.937728e-002 -4.592492e+000 144 88 102
3.287370e+000 4.876496e+000 -5.702530e+000 115 100 115
3.264304e+000 4.942762e+000 -5.558788e+000 72 56 67
3.264304e+000 4.942762e+000 -5.558788e+000 72 56 67
3.531846e+000 5.190172e+000 -5.343798e+000 105 91 111
3.531846e+000 5.190172e+000 -5.343798e+000 105 91 111
8.599480e-001 8.397653e-001 -9.062891e+000 103 83 95
1.923311e+000 -9.087047e-001 -6.935652e+000 69 40 0
1.923311e+000 -9.087047e-001 -6.935652e+000 69 40 0
1.968036e+000 -1.101738e+000 -6.837972e+000 73 48 1
1.968036e+000 -1.101738e+000 -6.837972e+000 73 48 1
1.560355e+000 -2.617894e-001 -6.832952e+000 83 46 43
1.311641e+000 -1.163308e-001 -6.559545e+000 93 44 48
-1.169203e+000 -3.412988e-001 -5.192072e+000 121 72 91
-8.927070e-001 -3.512393e-001 -5.255020e+000 103 54 68
2.119228e+000 -4.548831e-001 -6.281846e+000 147 101 69
-9.420420e-001 -3.522964e-001 -5.193910e+000 145 93 110
-2.350773e-001 3.893361e-001 -5.392347e+000 68 40 57
-1.040441e+000 -1.487449e-001 -4.863674e+000 150 107 134
-1.392588e+000 1.844455e-001 -4.764902e+000 190 148 167
2.184349e+000 8.165020e-001 -6.076913e+000 173 112 89
2.816741e-001 4.828790e-001 -5.347938e+000 183 116 127
-5.071373e-001 -1.281365e-001 -4.871164e+000 207 156 165
-5.718909e-001 6.273595e-003 -4.575410e+000 211 161 173
2.505491e+000 -5.309129e-001 -5.355848e+000 247 181 186
2.531395e+000 -3.562541e-001 -5.300927e+000 240 185 189
1.600118e+000 9.581874e-001 -5.253606e+000 154 90 82
3.345142e+000 4.613811e+000 -5.570491e+000 66 50 62
3.345142e+000 4.613811e+000 -5.570491e+000 66 50 62
3.370617e+000 5.027185e+000 -5.283784e+000 111 96 107
1.726103e+000 -3.873440e-001 -7.252152e+000 204 175 52
-2.396618e+000 3.480425e+000 -1.133504e+001 18 18 18
1.236918e+000 2.421113e-001 -8.341450e+000 14 12 13
-1.130195e+000 1.134585e+001 -1.017890e+001 109 102 123
-1.130195e+000 1.134585e+001 -1.017890e+001 109 102 123
-2.945823e+000 3.282232e+000 -1.181581e+001 20 18 21
3.379075e-002 1.121715e+001 -1.056476e+001 99 95 115
-2.628058e-001 1.011568e+001 -1.115426e+001 9 6 7
-1.887796e-002 1.087220e+001 -1.071693e+001 72 80 103
-9.440945e-001 1.091215e+001 -1.041488e+001 77 84 110
9.156254e-001 4.822712e-001 -8.939540e+000 131 125 144
-1.029947e+000 1.101122e+001 -1.028141e+001 18 19 21
2.270844e+000 -1.382782e-001 -5.991069e+000 172 142 31
-1.561100e-002 1.066839e+001 -1.083443e+001 71 60 64
-9.087915e-001 1.140275e+001 -1.014103e+001 92 81 102
8.631020e-001 2.509298e-001 -9.151658e+000 169 144 158
9.128334e-001 2.715794e-001 -9.021134e+000 157 148 160
-2.476676e+000 3.209609e+000 -1.174709e+001 97 96 103
1.198217e+000 -6.245398e-002 -8.413040e+000 154 152 169
-9.562644e-001 -1.029834e-001 -4.940669e+000 26 43 91
-6.528177e-001 8.494583e+000 -1.091695e+001 101 89 112
-2.566252e-002 1.072076e+001 -1.076126e+001 9 9 9
3.269521e+000 5.391909e+000 -7.359576e+000 70 60 73
-1.299019e+000 1.150140e+001 -1.004402e+001 93 75 95
1.892846e+000 -1.204172e+000 -6.750166e+000 61 40 0
-3.673477e-001 8.384595e+000 -1.105383e+001 121 96 118
-7.087150e-001 8.431645e+000 -1.096907e+001 123 105 121
-9.301919e-001 1.134257e+001 -1.022163e+001 44 42 57
-6.108563e+000 9.366137e+000 -1.218695e+001 3 3 3
-4.523349e+000 7.096817e+000 -9.741501e+000 129 100 96
-6.118887e-002 3.088545e-001 -5.529106e+000 61 3 5
-4.235632e+000 8.286462e+000 -9.237589e+000 111 80 76
-4.900795e+000 9.262219e+000 -9.161595e+000 80 77 89
-4.702754e+000 1.044311e+001 -8.883730e+000 80 75 93
-3.992956e+000 9.943259e+000 -8.842724e+000 101 73 70
-3.575470e+000 1.110365e+001 -9.285977e+000 106 96 120
-4.055051e+000 1.045528e+001 -8.581300e+000 8 8 7
1.629532e-002 2.938109e-001 -5.655287e+000 209 35 52
-4.637993e+000 7.804240e+000 -9.403299e+000 63 65 72
-4.637993e+000 7.804240e+000 -9.403299e+000 63 65 72
-4.672537e+000 7.988034e+000 -9.153743e+000 4 3 3
-4.058727e+000 8.271546e+000 -9.418634e+000 123 108 127
-3.414615e+000 1.137224e+001 -9.341214e+000 40 25 29
-9.873123e-001 -3.432224e-001 -5.240679e+000 71 33 45
9.950888e-001 4.403891e-001 -8.845391e+000 111 106 126
-4.587853e+000 8.075281e+000 -9.237313e+000 59 61 72
-4.159881e+000 8.177815e+000 -9.348800e+000 53 41 37
-3.744913e+000 9.833530e+000 -8.887042e+000 112 94 106
-3.273663e+000 1.114526e+001 -9.598654e+000 12 13 14
2.089492e+000 -5.177491e-001 -6.289236e+000 94 51 4
8.580851e-001 6.831665e-001 -9.111203e+000 122 109 130
1.229873e+000 7.325472e-002 -8.365249e+000 27 22 28
-4.088717e+000 8.306459e+000 -9.226644e+000 40 30 22
-3.651067e+000 1.014839e+001 -9.982443e+000 105 93 110
-3.895712e+000 9.846540e+000 -8.936268e+000 34 26 24
-3.837732e+000 9.995469e+000 -8.860534e+000 32 27 23
2.160350e+000 -9.720375e-001 -6.221775e+000 216 186 63
2.108010e+000 -5.081065e-001 -6.387766e+000 214 182 53
2.202635e+000 -7.082132e-001 -6.126836e+000 220 184 70
2.085218e+000 3.340583e-001 -6.262572e+000 113 64 47
-9.283446e-001 -1.385971e-001 -4.929945e+000 255 254 253
8.578325e-001 2.429260e-001 -9.128803e+000 156 137 154
8.179371e-001 4.280458e-001 -9.160246e+000 150 126 141
8.179371e-001 4.280458e-001 -9.160246e+000 150 126 141
-4.278162e+000 7.365564e+000 -9.486268e+000 50 35 44
-4.610279e+000 7.581351e+000 -9.413890e+000 56 55 64
-3.976525e+000 8.560287e+000 -9.252990e+000 41 29 26
-7.766023e-002 1.018124e+001 -1.131030e+001 8 7 5
-1.092471e-001 5.802190e-001 -5.351754e+000 193 155 160
-5.129078e-001 1.163082e-001 -4.595385e+000 236 176 187
2.613529e+000 1.198629e-001 -5.057245e+000 216 55 76
-4.449803e+000 7.121572e+000 -9.857470e+000 60 44 54
1.548568e+000 4.219308e-002 -7.678746e+000 42 29 5
1.940106e+000 -1.014266e+000 -6.677540e+000 85 58 2
-3.998060e+000 1.047265e+001 -8.754101e+000 94 74 70
2.530755e+000 -6.831474e-001 -5.303052e+000 243 145 73
-4.739829e+000 7.484353e+000 -9.610366e+000 9 9 9
-3.775278e-001 1.366281e-001 -5.527179e+000 85 3 10
-3.881661e+000 8.234160e+000 -9.998401e+000 109 97 117
-6.501249e-002 5.531610e-001 -5.329652e+000 214 172 182
2.053227e+000 -5.250470e-001 -6.439240e+000 244 210 78
-4.889502e-002 4.963353e-002 1.979693e-001 0 255 0
-4.873433e-002 4.950343e-002 1.479698e-001 255 255 0
-6.936307e-001 7.490148e-001 5.394183e-001 255 0 0
-6.906106e-001 7.465051e-001 4.895727e-001 255 255 0
-1.306500e+000 2.460124e-001 -1.619636e-001 0 255 0
-1.294841e+000 2.443566e-001 -2.105571e-001 255 255 0
-1.323495e+000 2.294906e+000 4.057744e-002 255 0 0
-1.310761e+000 2.284652e+000 -6.673945e-003 255 255 0
-2.514974e+000 -3.582577e+000 -1.925762e+000 0 255 0
-2.495435e+000 -3.549968e+000 -1.958242e+000 255 255 0
-1.046050e+000 -5.067459e+000 -3.242047e+000 255 0 0
-1.036966e+000 -5.023750e+000 -3.264563e+000 255 255 0
-9.282799e-001 -5.261367e+000 -3.565842e+000 0 255 0
